ply
format ascii 1.0
comment ---
element vertex 1241
property float x
property float y
property float z
property uchar red
property uchar green
property uchar blue
element face 0
property list uchar uint vertex_indices
end_header
-0.28288 1.59628 -0.714531 40 32 25
-0.27775 1.613692 -0.722597 146 137 128
-0.266744 1.596999 -0.715393 151 143 132
-0.259516 1.602467 -0.718125 149 140 131
-0.252078 1.606879 -0.720392 148 140 129
-0.245087 1.614472 -0.724095 146 138 127
-0.239062 1.629098 -0.730964 145 137 126
-0.231771 1.635782 -0.734279 144 136 125
-0.224065 1.63987 -0.736437 144 136 125
-0.216367 1.644263 -0.73874 143 135 124
-0.211266 1.669473 -0.750412 143 135 123
-0.20362 1.675778 -0.753596 136 127 115
-0.196491 1.687008 -0.759007 107 97 84
-0.188313 1.689777 -0.760617 79 66 52
-0.183148 1.721106 -0.775103 64 48 33
-0.173662 1.712807 -0.771747 65 40 27
-0.164897 1.711076 -0.771355 64 36 24
-0.156649 1.714777 -0.773419 61 32 21
-0.148938 1.725083 -0.778473 57 29 17
-0.141026 1.734135 -0.782971 52 24 12
-0.132305 1.733691 -0.783189 50 22 10
-0.123929 1.737987 -0.785556 49 21 9
-0.115607 1.743693 -0.788569 48 22 9
-0.107035 1.746199 -0.790141 50 23 11
-0.098418 1.748295 -0.791536 50 23 12
-0.090247 1.759536 -0.797082 53 27 14
-0.081331 1.756905 -0.79635 56 30 17
-0.072897 1.76542 -0.800679 60 33 20
-0.064293 1.771537 -0.803931 61 34 22
-0.055429 1.771117 -0.804222 61 33 21
-0.046663 1.774328 -0.80617 60 32 20
-0.037943 1.781328 -0.809849 61 33 21
-0.029163 1.788987 -0.813838 61 33 21
-0.02029 1.795137 -0.817151 61 33 21
-0.011319 1.794785 -0.817511 61 33 21
-0.002354 1.799602 -0.820233 62 34 22
0.006608 1.792887 -0.817704 62 34 22
0.015729 1.809474 -0.825817 61 33 21
0.024896 1.817638 -0.830097 62 34 22
0.034183 1.827657 -0.835238 61 33 21
0.043379 1.829805 -0.836791 59 33 20
0.05251 1.828933 -0.83697 59 33 20
0.061818 1.833316 -0.839563 58 32 19
0.070609 1.823527 -0.835669 58 32 19
0.079788 1.824474 -0.836702 59 33 20
0.088943 1.824649 -0.837388 59 32 20
0.098183 1.826245 -0.838735 59 32 19
0.107632 1.830937 -0.841515 59 33 20
0.116954 1.832876 -0.843039 59 32 19
0.126395 1.836139 -0.845183 58 32 19
0.135493 1.834307 -0.84499 57 31 18
0.145204 1.840241 -0.848385 57 31 18
0.15491 1.845307 -0.851394 56 30 17
0.16424 1.845558 -0.85219 56 30 17
0.173431 1.84424 -0.85227 53 27 14
0.181569 1.832506 -0.84754 54 28 15
0.191823 1.841785 -0.852541 53 27 14
0.200803 1.838637 -0.8518 53 27 14
0.210535 1.842145 -0.854154 52 26 13
0.219667 1.840298 -0.854035 52 25 13
0.228889 1.839213 -0.85428 50 26 13
0.238841 1.843669 -0.857111 49 25 14
0.247044 1.834877 -0.85379 49 25 13
0.25687 1.838065 -0.856055 49 25 12
0.266484 1.839482 -0.857508 49 25 12
0.275807 1.838779 -0.857986 48 25 12
0.283247 1.82604 -0.85285 47 25 12
0.291925 1.821622 -0.851607 47 24 12
0.30192 1.825228 -0.85413 47 24 12
0.311033 1.823399 -0.854122 47 24 11
0.319785 1.819535 -0.853172 47 24 12
0.328101 1.813395 -0.851161 46 24 12
0.336668 1.808811 -0.849891 45 23 10
0.345616 1.806328 -0.849618 45 23 10
0.354005 1.801047 -0.848039 44 22 9
0.362385 1.795873 -0.84652 44 22 9
0.371421 1.793972 -0.846556 44 22 9
0.380279 1.79121 -0.846198 41 21 7
0.389139 1.788473 -0.845863 41 21 8
0.397247 1.782404 -0.843963 44 22 11
0.406345 1.780778 -0.84418 45 23 11
0.413814 1.772203 -0.84111 47 25 14
0.423151 1.771618 -0.841846 45 25 14
0.432341 1.770332 -0.842264 44 24 13
0.440935 1.766615 -0.841539 45 24 13
0.449488 1.762764 -0.840762 45 24 13
0.456361 1.752563 -0.836962 45 25 15
0.465165 1.74983 -0.83674 47 30 20
0.474282 1.748218 -0.837068 53 40 29
0.482405 1.742985 -0.835675 58 48 36
0.490378 1.737299 -0.834074 92 85 71
0.498538 1.732345 -0.832835 107 101 86
0.506084 1.725375 -0.830634 113 106 91
0.513706 1.718788 -0.828625 50 37 24
0.522905 1.717436 -0.829153 41 23 11
0.528312 1.703909 -0.823805 44 25 14
0.535099 1.695063 -0.82072 43 23 12
0.543105 1.690154 -0.819549 43 23 12
0.550405 1.683162 -0.817374 42 23 10
0.558424 1.678426 -0.8163 41 21 10
0.567302 1.676247 -0.816479 42 22 11
0.573342 1.665872 -0.812665 41 21 10
0.579876 1.657126 -0.809644 41 21 10
0.590709 1.660516 -0.812564 41 21 10
0.598815 1.656238 -0.811736 40 21 9
0.599544 1.632141 -0.801171 38 20 8
0.61239 1.640823 -0.806707 40 22 9
0.620983 1.638061 -0.80662 40 22 11
0.628698 1.633054 -0.805423 40 20 9
0.635444 1.625682 -0.803049 40 20 9
0.643599 1.621985 -0.802482 39 19 8
0.650229 1.614604 -0.800079 33 15 3
0.659335 1.613393 -0.800723 31 13 2
0.668958 1.613421 -0.801973 34 16 4
0.674117 1.602935 -0.797971 32 16 3
0.680264 1.595027 -0.795225 33 17 4
0.692783 1.601919 -0.799849 35 17 5
-0.701319 1.072528 -0.48219 128 122 108
-0.699473 1.077728 -0.485121 129 123 109
-0.697138 1.082393 -0.487782 129 123 109
-0.692906 1.08433 -0.489183 131 125 111
-0.688782 1.086602 -0.490703 132 126 112
-0.684976 1.08955 -0.492495 132 126 112
-0.683721 1.096735 -0.496172 134 128 114
-0.679601 1.099589 -0.497856 134 128 114
-0.675904 1.103308 -0.499898 135 129 115
-0.672697 1.108024 -0.502358 135 129 117
-0.668621 1.111521 -0.504232 135 129 115
-0.664748 1.115543 -0.50631 136 130 116
-0.661671 1.121093 -0.509048 137 131 117
-0.658697 1.12704 -0.511935 138 132 118
-0.654388 1.130927 -0.513852 139 133 119
-0.65021 1.135217 -0.515922 139 133 121
-0.646607 1.140693 -0.518501 141 135 123
-0.643917 1.147982 -0.521875 142 136 123
-0.638927 1.151396 -0.523459 142 136 122
-0.632312 1.15202 -0.523746 143 137 123
-0.628664 1.15813 -0.526505 144 138 124
-0.624547 1.163563 -0.528932 145 139 127
-0.619522 1.167465 -0.530641 145 139 127
-0.615672 1.17371 -0.533396 146 140 128
-0.613423 1.183187 -0.537601 146 140 128
-0.608444 1.187623 -0.539498 146 141 129
-0.602571 1.19042 -0.540636 145 141 129
-0.598415 1.196686 -0.543337 146 142 130
-0.593009 1.200588 -0.544954 146 142 130
-0.5889 1.207207 -0.547795 147 144 131
-0.584264 1.212882 -0.550199 147 143 131
-0.579651 1.218719 -0.55267 148 143 131
-0.575169 1.224945 -0.555313 149 143 131
-0.569301 1.228322 -0.55666 149 144 132
-0.56425 1.233509 -0.558826 149 143 131
-0.559096 1.238555 -0.560928 148 142 130
-0.554255 1.244373 -0.563379 149 143 131
-0.549762 1.25107 -0.56623 151 144 133
-0.544618 1.256394 -0.568461 150 144 132
-0.539738 1.262406 -0.571007 150 145 133
-0.534361 1.267343 -0.57307 148 144 132
-0.52964 1.273908 -0.575875 151 145 133
-0.524281 1.279033 -0.578034 151 144 133
-0.518826 1.283991 -0.580123 151 145 133
-0.513675 1.289766 -0.582588 152 146 134
-0.508388 1.295285 -0.584945 152 146 134
-0.503129 1.300951 -0.587376 152 146 134
-0.497234 1.305041 -0.589103 153 147 135
-0.491576 1.309795 -0.591139 153 147 135
-0.486144 1.315214 -0.593484 153 147 135
-0.481186 1.322004 -0.596456 153 147 135
-0.475502 1.326906 -0.598586 153 147 135
-0.470046 1.332515 -0.601044 153 147 135
-0.465807 1.341697 -0.605124 153 147 135
-0.460593 1.348254 -0.608029 153 147 135
-0.454692 1.352905 -0.610084 154 148 136
-0.448264 1.356038 -0.611464 154 148 136
-0.441874 1.359303 -0.612914 154 148 136
-0.436068 1.364408 -0.615204 154 148 136
-0.432334 1.376156 -0.620501 154 147 137
-0.427198 1.383718 -0.62392 154 147 136
-0.421932 1.391038 -0.62724 154 147 137
-0.41581 1.395681 -0.629362 155 148 138
-0.409816 1.400839 -0.631728 156 149 139
-0.40514 1.410674 -0.636213 157 150 139
-0.399733 1.418218 -0.639676 158 152 140
-0.393764 1.423947 -0.642329 158 151 141
-0.388475 1.432309 -0.646182 158 151 141
-0.382688 1.439063 -0.649319 159 152 142
-0.376596 1.444844 -0.652027 160 153 143
-0.370645 1.451335 -0.655066 160 152 142
-0.365082 1.459559 -0.658898 160 153 143
-0.358933 1.465677 -0.661789 159 152 142
-0.354382 1.478625 -0.667775 160 152 143
-0.348397 1.48598 -0.671246 161 153 143
-0.343402 1.497897 -0.676789 156 147 138
-0.336843 1.503341 -0.679417 142 133 124
-0.330868 1.511624 -0.683338 90 80 71
-0.324159 1.51681 -0.685868 105 96 87
-0.317213 1.52105 -0.68798 141 132 125
-0.310148 1.524851 -0.689903 34 25 18
-0.303109 1.528908 -0.69195 149 140 132
-0.296205 1.533807 -0.694388 154 145 137
-0.290827 1.546991 -0.700589 146 137 129
-0.287009 1.569361 -0.710964 19 13 8
-0.280361 1.577074 -0.714709 37 30 24
-0.273105 1.581663 -0.717047 147 139 128
-0.266331 1.589339 -0.720795 150 142 131
-0.259311 1.595912 -0.724052 146 138 127
-0.252409 1.603599 -0.727824 145 137 126
-0.245817 1.613771 -0.732735 144 136 125
-0.237751 1.614577 -0.7334 143 135 124
-0.23196 1.631363 -0.741337 142 134 123
-0.225049 1.641171 -0.746114 139 130 119
-0.220125 1.666706 -0.758058 134 126 114
-0.212514 1.673075 -0.761294 87 77 63
-0.204757 1.678717 -0.764209 76 62 48
-0.196413 1.679759 -0.765036 67 47 34
-0.188086 1.68099 -0.765956 64 38 25
-0.181503 1.698616 -0.774361 64 36 25
-0.173597 1.704922 -0.777615 65 35 24
-0.165303 1.707822 -0.779323 63 34 21
-0.155994 1.699872 -0.776083 62 32 19
-0.149557 1.724174 -0.787584 59 29 18
-0.140652 1.721105 -0.786588 54 25 14
-0.131707 1.717035 -0.78514 52 24 12
-0.123136 1.717597 -0.785816 51 23 11
-0.114407 1.715797 -0.785416 50 22 11
-0.106484 1.72682 -0.790897 50 22 11
-0.098024 1.730192 -0.792883 53 24 13
-0.089612 1.735131 -0.795595 55 26 15
-0.081712 1.752221 -0.803894 58 30 18
-0.072702 1.746382 -0.801677 61 33 21
-0.064169 1.75214 -0.804792 62 34 22
-0.055176 1.744865 -0.801924 61 33 22
-0.047108 1.770437 -0.814172 61 33 21
-0.038427 1.778994 -0.818606 61 33 21
-0.029551 1.780582 -0.819842 61 33 21
-0.020642 1.780584 -0.820354 61 33 21
-0.011739 1.781794 -0.821429 61 33 21
-0.002823 1.781798 -0.821956 61 33 21
0.006101 1.783047 -0.823064 61 33 21
0.014964 1.776514 -0.820584 61 33 21
0.023838 1.775095 -0.820471 61 33 21
0.033109 1.7946 -0.830047 61 33 21
0.042613 1.815493 -0.840286 59 33 20
0.051464 1.807079 -0.836964 59 33 20
0.06049 1.806097 -0.837091 58 32 19
0.069998 1.817396 -0.842923 58 32 19
0.078748 1.8091 -0.839671 58 32 19
0.087897 1.810404 -0.840883 57 31 18
0.097036 1.811197 -0.841866 58 32 19
0.106064 1.809901 -0.841885 58 32 19
0.115351 1.81271 -0.843824 58 32 19
0.124774 1.816943 -0.846437 57 31 18
0.134072 1.818848 -0.847976 56 30 17
0.144042 1.828787 -0.853276 56 30 17
0.153682 1.833581 -0.856188 56 30 17
0.16301 1.834285 -0.8572 55 29 16
0.171722 1.828372 -0.855127 54 28 15
0.180746 1.826064 -0.854747 55 29 16
0.190084 1.826841 -0.855821 53 27 14
0.199174 1.825214 -0.855778 52 25 13
0.208149 1.822633 -0.855296 51 24 14
0.217231 1.821056 -0.855295 50 24 13
0.226335 1.819674 -0.855395 49 24 12
0.235484 1.818636 -0.855667 48 24 12
0.24451 1.816682 -0.855518 48 24 12
0.253857 1.817021 -0.85646 49 26 12
0.264369 1.825166 -0.861099 49 26 12
0.273086 1.820839 -0.859865 49 25 12
0.280289 1.807055 -0.854166 49 26 12
0.289982 1.809373 -0.85609 48 24 12
0.298788 1.806146 -0.855402 50 26 14
0.308952 1.810856 -0.858489 49 25 13
0.31781 1.807842 -0.857927 49 25 13
0.325116 1.796418 -0.853377 48 24 12
0.334405 1.796028 -0.854081 46 23 11
0.342489 1.789325 -0.851791 46 23 11
0.351636 1.788197 -0.852168 45 23 10
0.360524 1.785743 -0.851925 44 22 9
0.369087 1.781735 -0.850952 44 22 9
0.377486 1.777045 -0.849664 43 22 8
0.38641 1.774843 -0.849578 42 22 10
0.396204 1.776472 -0.851343 42 22 11
0.403322 1.766318 -0.847468 44 22 11
0.411764 1.762103 -0.846452 45 23 12
0.420972 1.761112 -0.847 43 23 12
0.429269 1.756354 -0.845748 44 23 12
0.436964 1.749291 -0.843395 47 25 14
0.44401 1.739885 -0.839917 46 24 13
0.453845 1.741315 -0.841688 48 25 14
0.46302 1.740106 -0.842198 46 24 12
0.470663 1.733239 -0.83998 46 25 14
0.479587 1.731086 -0.840059 44 24 13
0.487938 1.726877 -0.839153 44 25 13
0.493934 1.714623 -0.834339 43 26 13
0.502434 1.711131 -0.8338 40 25 12
0.508143 1.698416 -0.828767 41 23 11
0.517112 1.696619 -0.829072 41 22 11
0.5258 1.693868 -0.828924 42 23 11
0.53352 1.688062 -0.827289 42 22 11
0.53847 1.673825 -0.821518 43 23 12
0.547747 1.673031 -0.822355 42 23 9
0.555938 1.668927 -0.821573 43 23 11
0.563159 1.662016 -0.819412 43 23 12
0.573058 1.662914 -0.821112 43 23 12
0.577792 1.6491 -0.815542 42 22 11
0.58769 1.649971 -0.817241 41 21 10
0.593672 1.640023 -0.813577 41 22 10
0.598899 1.628271 -0.809006 41 21 10
0.604319 1.617317 -0.80482 41 22 10
0.616854 1.625165 -0.810002 40 20 9
0.624596 1.620405 -0.808897 39 19 8
0.634172 1.620366 -0.810147 40 20 9
0.639834 1.610532 -0.806484 39 19 8
0.647192 1.605106 -0.805013 33 14 2
0.654855 1.600543 -0.803959 34 16 4
0.664794 1.601512 -0.805675 33 17 4
0.670656 1.592866 -0.802528 32 16 3
0.676196 1.583714 -0.799097 32 16 3
0.687578 1.588177 -0.80252 34 16 4
-0.695347 1.062472 -0.483683 129 123 109
-0.69895 1.075841 -0.490385 129 123 109
-0.698135 1.082768 -0.494127 129 123 109
-0.693489 1.084009 -0.495242 131 125 111
-0.688663 1.085127 -0.496267 132 126 112
-0.685294 1.088691 -0.498379 131 125 111
-0.682403 1.093207 -0.500894 132 126 112
-0.680331 1.099246 -0.504075 134 128 116
-0.677466 1.104241 -0.506744 134 128 116
-0.674286 1.108945 -0.509246 136 130 117
-0.669081 1.110532 -0.510281 136 130 116
-0.664808 1.113818 -0.512061 136 130 116
-0.662057 1.119834 -0.515064 138 132 118
-0.65844 1.124617 -0.517466 139 133 119
-0.654522 1.129086 -0.519691 139 133 121
-0.650449 1.133481 -0.521848 140 134 122
-0.646942 1.139048 -0.524515 140 134 122
-0.644588 1.146853 -0.528183 141 135 121
-0.639769 1.15051 -0.52991 141 135 122
-0.633957 1.15253 -0.530855 142 136 123
-0.629818 1.157705 -0.533228 143 137 125
-0.625014 1.161825 -0.53509 144 138 126
-0.620245 1.166149 -0.537022 144 138 125
-0.61686 1.173218 -0.540199 144 138 126
-0.613284 1.180117 -0.543278 145 139 127
-0.607606 1.18314 -0.544554 146 141 129
-0.60377 1.189845 -0.547509 145 141 129
-0.599567 1.19599 -0.550192 146 142 129
-0.594792 1.201137 -0.552404 146 142 130
-0.589748 1.205851 -0.554406 146 142 130
-0.585318 1.211923 -0.557023 146 142 130
-0.581031 1.21842 -0.559829 146 142 130
-0.576192 1.223888 -0.562155 147 143 131
-0.569655 1.225832 -0.562858 148 143 131
-0.565271 1.232435 -0.565698 149 143 131
-0.560076 1.237386 -0.567778 147 143 131
-0.55455 1.241677 -0.569555 149 144 132
-0.550192 1.248652 -0.572565 150 144 132
-0.545002 1.253857 -0.574764 148 142 130
-0.53983 1.259177 -0.577018 149 143 131
-0.535916 1.267525 -0.580664 150 144 132
-0.530497 1.27245 -0.582745 149 144 131
-0.525008 1.27727 -0.584783 150 144 132
-0.519301 1.281616 -0.58661 150 144 132
-0.513972 1.286944 -0.588894 151 145 133
-0.50879 1.292714 -0.591386 151 145 133
-0.50334 1.297887 -0.593613 152 146 133
-0.498002 1.303419 -0.596012 152 146 134
-0.491897 1.307006 -0.597529 152 146 134
-0.487048 1.31398 -0.600605 152 146 134
-0.482711 1.322477 -0.604385 152 146 134
-0.477063 1.327527 -0.606598 153 147 135
-0.472814 1.336577 -0.61065 153 147 135
-0.467973 1.344138 -0.61403 153 147 135
-0.462096 1.348851 -0.616118 153 147 135
-0.454364 1.34816 -0.615746 153 147 135
-0.448825 1.35393 -0.618337 153 147 135
-0.442124 1.356261 -0.619367 153 147 135
-0.436233 1.361097 -0.621552 153 147 135
-0.435548 1.382438 -0.631288 153 147 135
-0.428955 1.385474 -0.632671 153 147 135
-0.422851 1.39013 -0.634804 154 148 136
-0.417237 1.396495 -0.637729 155 148 138
-0.410816 1.400275 -0.639483 155 148 138
-0.406081 1.409931 -0.643933 157 150 138
-0.40034 1.41633 -0.646905 157 151 139
-0.394284 1.421762 -0.649445 157 150 140
-0.389728 1.43281 -0.654562 157 150 140
-0.383696 1.438705 -0.657335 158 151 141
-0.377665 1.444766 -0.660194 158 151 141
-0.371857 1.451863 -0.663537 159 152 142
-0.366131 1.459501 -0.667138 159 151 142
-0.359949 1.465536 -0.670017 158 151 141
-0.353792 1.471864 -0.673039 159 151 141
-0.349002 1.484182 -0.678813 160 151 142
-0.34305 1.491953 -0.682517 157 149 140
-0.337701 1.502679 -0.687585 141 132 123
-0.33128 1.508977 -0.690635 116 106 97
-0.324492 1.513799 -0.69302 68 59 50
-0.317946 1.519935 -0.696016 143 134 125
-0.310702 1.5229 -0.69757 37 27 19
-0.303391 1.525615 -0.699017 150 141 132
-0.296927 1.532754 -0.702502 153 144 136
-0.291185 1.544033 -0.707896 102 96 89
-0.285995 1.558874 -0.714935 16 11 5
-0.279451 1.566933 -0.718875 37 30 22
-0.273346 1.577924 -0.72417 144 136 126
-0.266191 1.583295 -0.726895 148 140 129
-0.259076 1.589173 -0.729863 145 137 126
-0.252709 1.600093 -0.735157 142 134 123
-0.246756 1.614378 -0.742011 141 133 122
-0.239613 1.621551 -0.745605 137 129 118
-0.233366 1.635441 -0.7523 120 110 98
-0.227274 1.651416 -0.759967 91 79 64
-0.221025 1.667374 -0.76764 73 56 41
-0.213381 1.673609 -0.770846 69 45 32
-0.204464 1.669898 -0.769476 66 39 27
-0.196357 1.672709 -0.771119 67 37 26
-0.18778 1.671515 -0.770922 67 38 25
-0.179361 1.671625 -0.771333 67 37 24
-0.172515 1.687088 -0.778843 64 35 22
-0.16407 1.687628 -0.77947 62 33 20
-0.156145 1.693828 -0.78272 60 31 17
-0.147514 1.692556 -0.782524 57 27 15
-0.139515 1.698794 -0.785809 54 24 13
-0.129791 1.683328 -0.779053 52 23 11
-0.121788 1.689622 -0.782378 51 23 11
-0.112958 1.684405 -0.780376 51 23 12
-0.105241 1.696353 -0.786339 52 24 13
-0.096729 1.696327 -0.786758 54 26 15
-0.087886 1.68979 -0.784159 57 29 19
-0.080184 1.706389 -0.792313 59 31 19
-0.072307 1.722757 -0.800374 61 33 21
-0.063487 1.717652 -0.798463 60 32 20
-0.055016 1.722037 -0.800972 61 33 21
-0.047424 1.761655 -0.819897 61 33 21
-0.038356 1.750344 -0.81512 61 33 21
-0.029567 1.749204 -0.815086 62 34 22
-0.02097 1.764485 -0.822719 61 33 21
-0.012107 1.761152 -0.821677 61 33 21
-0.003281 1.76262 -0.822883 60 32 20
0.00558 1.768964 -0.826377 60 32 20
0.014444 1.768397 -0.826649 60 32 20
0.023278 1.765952 -0.826048 60 32 20
0.032213 1.769929 -0.828461 60 32 20
0.041523 1.787546 -0.837277 60 32 20
0.050464 1.786463 -0.837341 59 33 20
0.059578 1.790588 -0.839856 59 33 20
0.068411 1.786455 -0.838504 58 32 19
0.077042 1.778623 -0.835417 58 32 19
0.086468 1.788312 -0.840575 58 32 19
0.095602 1.790767 -0.842343 58 32 19
0.104693 1.792004 -0.843546 57 31 18
0.114398 1.802394 -0.849074 57 31 18
0.123821 1.807156 -0.851962 56 30 17
0.132986 1.807739 -0.852891 56 30 17
0.14215 1.808133 -0.853739 56 30 17
0.15157 1.8114 -0.855956 54 28 15
0.160747 1.81149 -0.856681 54 28 15
0.17028 1.815219 -0.85914 53 27 14
0.179562 1.815963 -0.860196 53 27 14
0.188517 1.813439 -0.859713 51 25 13
0.197761 1.81366 -0.860542 52 25 14
0.20665 1.810697 -0.859868 51 25 13
0.21532 1.806064 -0.858409 49 24 12
0.225024 1.809906 -0.860991 48 24 12
0.234408 1.810907 -0.862234 48 24 12
0.2431 1.806655 -0.860985 47 24 11
0.251143 1.798025 -0.857654 48 25 12
0.260457 1.798543 -0.858699 48 24 12
0.268488 1.790488 -0.855656 48 25 11
0.277788 1.790921 -0.856682 48 24 11
0.285938 1.784135 -0.854262 49 25 13
0.296056 1.789401 -0.857629 49 25 13
0.305335 1.789378 -0.858475 49 25 13
0.312817 1.779159 -0.854435 49 25 13
0.323593 1.787366 -0.859264 49 25 13
0.330462 1.77429 -0.853865 49 25 13
0.338761 1.769181 -0.852308 47 24 12
0.346792 1.762879 -0.850184 47 24 12
0.355957 1.762331 -0.850849 45 23 10
0.3655 1.763487 -0.852353 45 23 10
0.375519 1.766677 -0.85486 44 22 9
0.384776 1.766136 -0.855576 45 23 11
0.393055 1.761165 -0.854157 44 22 11
0.401038 1.75502 -0.852179 45 23 12
0.409746 1.752094 -0.851775 46 24 13
0.416936 1.742897 -0.84833 46 23 13
0.425366 1.738989 -0.84747 45 23 12
0.433268 1.733031 -0.845622 45 23 12
0.440046 1.722851 -0.841718 45 23 12
0.449027 1.72131 -0.842048 44 23 10
0.455889 1.711841 -0.838506 43 23 9
0.464255 1.708095 -0.837779 43 23 12
0.476032 1.716528 -0.843051 44 24 13
0.482352 1.705431 -0.838736 45 25 14
0.491916 1.705749 -0.840051 44 24 13
0.495663 1.686367 -0.831657 43 25 13
0.504299 1.683715 -0.831524 43 23 12
0.512475 1.679549 -0.830653 43 23 12
0.523417 1.684214 -0.83417 43 23 12
0.526254 1.66326 -0.824988 43 23 12
0.530215 1.646375 -0.817813 43 23 12
0.542664 1.655566 -0.823614 42 23 9
0.55105 1.652287 -0.823221 42 23 10
0.559615 1.649529 -0.823096 42 22 11
0.566001 1.640513 -0.819847 42 22 11
0.578844 1.649897 -0.825814 41 21 10
0.57891 1.623448 -0.81382 41 21 10
0.589425 1.626267 -0.816505 41 21 10
0.593315 1.611123 -0.810156 42 22 11
0.600853 1.606016 -0.808849 41 21 10
0.608048 1.600107 -0.80713 42 22 11
0.619274 1.604644 -0.810687 41 21 10
0.626467 1.59881 -0.808994 39 19 8
0.636672 1.600593 -0.811154 39 19 8
0.642641 1.591912 -0.807991 34 14 3
0.651014 1.589259 -0.807874 34 16 4
0.658191 1.583823 -0.806321 32 16 3
0.670434 1.590419 -0.810888 31 15 2
0.680478 1.591752 -0.812756 33 16 3
0.688953 1.58949 -0.812764 34 16 4
-0.69128 1.055347 -0.486409 129 123 109
-0.703228 1.081301 -0.499018 129 123 109
-0.698688 1.082495 -0.500173 130 124 110
-0.694839 1.084911 -0.501861 130 124 110
-0.69077 1.087158 -0.503438 132 126 112
-0.687271 1.090474 -0.505477 132 126 112
-0.68413 1.094546 -0.507834 133 127 113
-0.680873 1.098636 -0.510166 135 129 116
-0.678567 1.104463 -0.513272 135 129 117
-0.675588 1.109428 -0.515943 135 129 117
-0.67322 1.115615 -0.51915 136 130 116
-0.668111 1.117501 -0.520318 136 130 116
-0.663666 1.120652 -0.52204 137 131 117
-0.659268 1.12406 -0.523846 137 131 117
-0.654751 1.127441 -0.525607 137 131 119
-0.650883 1.132113 -0.527935 140 134 122
-0.647105 1.137133 -0.530395 140 134 121
-0.643537 1.142718 -0.533086 140 134 120
-0.639838 1.148272 -0.535734 140 134 120
-0.636009 1.153788 -0.538334 141 135 122
-0.630904 1.157173 -0.539912 142 136 123
-0.625735 1.160573 -0.541472 143 137 123
-0.620939 1.164792 -0.543389 144 138 124
-0.617033 1.170824 -0.546131 143 137 123
-0.612579 1.175986 -0.548445 144 138 126
-0.608556 1.182122 -0.551196 145 140 128
-0.604074 1.187527 -0.553588 145 141 129
-0.599714 1.19331 -0.55614 145 142 127
-0.595169 1.198864 -0.558573 145 141 129
-0.590224 1.203738 -0.560676 145 141 129
-0.585289 1.208738 -0.562829 145 141 129
-0.581519 1.216255 -0.566145 146 142 130
-0.576194 1.22067 -0.56801 146 142 130
-0.570525 1.224431 -0.569565 146 142 130
-0.566864 1.232576 -0.573157 147 142 130
-0.561162 1.236428 -0.574748 147 143 131
-0.555878 1.241256 -0.576793 147 143 131
-0.550725 1.246451 -0.579008 147 143 131
-0.545767 1.252168 -0.581467 147 143 131
-0.540903 1.258194 -0.584072 148 143 131
-0.536834 1.266179 -0.587589 148 143 131
-0.531587 1.271518 -0.589881 149 143 131
-0.525579 1.275103 -0.591364 149 143 131
-0.520692 1.28145 -0.594134 149 144 131
-0.514878 1.285605 -0.595893 150 144 132
-0.509184 1.290097 -0.597816 150 144 132
-0.504578 1.297419 -0.601057 151 145 133
-0.498813 1.30187 -0.602975 151 145 133
-0.492445 1.304785 -0.60419 151 145 133
-0.487269 1.310884 -0.60689 152 146 133
-0.483951 1.322126 -0.61198 152 146 134
-0.47799 1.326349 -0.613827 152 146 134
-0.472211 1.331127 -0.615941 152 146 134
-0.468354 1.341435 -0.620625 152 146 134
-0.462078 1.344995 -0.622194 152 146 134
-0.455085 1.346476 -0.622811 152 146 134
-0.449448 1.351969 -0.625296 152 146 134
-0.443961 1.358012 -0.628045 152 146 134
-0.44271 1.377274 -0.636922 152 146 134
-0.437649 1.385128 -0.640529 152 146 134
-0.430588 1.386772 -0.641273 153 147 135
-0.424375 1.391143 -0.64329 153 147 136
-0.41864 1.397175 -0.646086 154 147 137
-0.412739 1.402781 -0.648696 155 148 138
-0.406671 1.407932 -0.651105 155 148 138
-0.400883 1.414177 -0.654031 156 150 138
-0.395293 1.421286 -0.657368 156 149 139
-0.390462 1.431356 -0.662086 157 150 140
-0.384654 1.438114 -0.665281 158 150 141
-0.378329 1.4431 -0.667668 158 150 141
-0.372374 1.449638 -0.670783 158 150 141
-0.366884 1.458215 -0.674852 158 150 141
-0.360793 1.464649 -0.67794 158 151 141
-0.354494 1.470424 -0.680733 159 150 141
-0.350022 1.484091 -0.687193 159 150 141
-0.343674 1.490203 -0.690164 158 149 140
-0.338115 1.500008 -0.694856 143 133 124
-0.331768 1.506634 -0.698086 121 111 103
-0.325121 1.512115 -0.700795 38 31 23
-0.31897 1.52015 -0.704699 51 44 36
-0.311997 1.524515 -0.706911 150 140 132
-0.304466 1.526247 -0.70791 152 143 135
-0.297805 1.532457 -0.710997 78 70 65
-0.292441 1.545767 -0.717391 13 7 3
-0.286296 1.555526 -0.722147 16 10 4
-0.279452 1.561879 -0.725332 95 87 79
-0.273426 1.573233 -0.730851 141 132 123
-0.266388 1.579221 -0.733886 144 136 125
-0.260171 1.590528 -0.739406 142 134 123
-0.255131 1.609913 -0.748696 136 128 117
-0.247429 1.613196 -0.750504 124 116 103
-0.24034 1.620769 -0.754319 89 79 64
-0.233685 1.631841 -0.759775 71 53 39
-0.227105 1.64421 -0.765846 66 43 30
-0.221178 1.662374 -0.774631 67 37 26
-0.211554 1.653039 -0.770604 67 37 26
-0.204335 1.662426 -0.775316 66 36 25
-0.195432 1.658266 -0.773716 67 38 26
-0.187481 1.662114 -0.77586 67 38 24
-0.179469 1.665702 -0.777892 66 37 23
-0.171269 1.667747 -0.779211 64 36 21
-0.163181 1.671089 -0.781144 65 36 22
-0.154954 1.673235 -0.782526 63 34 20
-0.145305 1.659285 -0.776379 58 29 16
-0.137591 1.667077 -0.780417 56 26 15
-0.129791 1.67474 -0.784405 54 24 13
-0.120296 1.65988 -0.777842 53 24 12
-0.111859 1.658528 -0.777615 53 24 13
-0.103604 1.659829 -0.77864 53 25 14
-0.09467 1.649374 -0.77415 56 28 17
-0.086568 1.652879 -0.776221 58 30 19
-0.079395 1.676991 -0.78799 60 32 20
-0.071617 1.692381 -0.795675 60 32 20
-0.063004 1.689171 -0.794619 61 33 21
-0.054846 1.699322 -0.799861 62 34 22
-0.038201 1.718503 -0.809854 62 34 22
-0.029884 1.737308 -0.819217 61 33 21
-0.021204 1.740835 -0.821384 61 33 21
-0.012436 1.735908 -0.819566 61 33 21
-0.003727 1.740498 -0.822251 61 33 21
0.005026 1.744208 -0.824529 60 32 20
0.013857 1.752348 -0.828914 60 32 20
0.022763 1.759744 -0.832959 60 32 20
0.031667 1.762993 -0.835051 60 32 20
0.040781 1.773478 -0.840584 59 31 19
0.049872 1.779425 -0.843978 58 32 19
0.058466 1.769008 -0.839612 58 32 19
0.067009 1.75985 -0.835845 57 31 18
0.076145 1.766055 -0.839387 58 32 19
0.085301 1.77129 -0.842479 58 32 19
0.094432 1.774998 -0.844857 58 32 19
0.103399 1.775231 -0.845589 58 32 19
0.112847 1.782751 -0.849806 56 30 17
0.122122 1.786593 -0.852282 56 30 17
0.132222 1.800838 -0.85974 56 30 17
0.140736 1.793338 -0.85682 55 29 16
0.149938 1.794732 -0.858161 54 28 15
0.159413 1.798887 -0.860835 52 28 15
0.168072 1.793935 -0.859157 51 26 14
0.177422 1.796275 -0.860983 52 25 13
0.186928 1.799759 -0.863371 49 25 13
0.195792 1.797013 -0.862778 50 25 13
0.202353 1.774539 -0.852707 48 24 12
0.213788 1.794143 -0.862882 49 25 13
0.222931 1.79388 -0.863513 48 24 12
0.233027 1.80079 -0.867615 49 25 13
0.24215 1.799933 -0.867986 48 24 12
0.249655 1.787618 -0.862833 48 24 12
0.25739 1.777624 -0.858804 47 23 11
0.266103 1.774639 -0.858171 48 24 11
0.275144 1.773821 -0.858598 48 24 12
0.283911 1.771262 -0.858192 48 24 12
0.291809 1.763571 -0.855307 48 24 12
0.300325 1.7598 -0.854333 48 24 12
0.308283 1.753011 -0.8519 49 25 13
0.314975 1.73959 -0.846246 48 24 12
0.326342 1.751576 -0.852975 48 24 12
0.334805 1.747827 -0.852055 48 24 12
0.343765 1.746647 -0.8524 47 23 11
0.352686 1.745222 -0.852639 46 23 11
0.361841 1.744859 -0.853412 47 24 11
0.373088 1.754113 -0.858913 47 24 12
0.382868 1.756147 -0.860898 47 23 11
0.389478 1.743935 -0.855904 47 24 14
0.398595 1.742994 -0.856455 47 23 13
0.406092 1.735134 -0.853614 47 23 13
0.41419 1.729979 -0.852114 46 23 13
0.422971 1.727684 -0.852036 46 24 12
0.431015 1.722445 -0.850518 45 23 12
0.43786 1.712665 -0.846762 43 23 10
0.446004 1.708087 -0.845589 43 23 10
0.453008 1.699339 -0.842357 45 25 12
0.460567 1.692832 -0.840245 42 23 12
0.468854 1.689046 -0.839494 43 23 12
0.480367 1.696547 -0.844379 42 22 11
0.47695 1.652508 -0.823576 43 23 12
0.491711 1.67108 -0.83401 42 22 11
0.500297 1.66848 -0.833893 42 22 11
0.509721 1.668568 -0.835134 42 22 10
0.516716 1.660812 -0.832455 42 22 11
0.524758 1.65648 -0.8315 42 23 10
0.526939 1.634218 -0.821528 42 23 10
0.537676 1.638391 -0.824861 42 23 10
0.544323 1.630206 -0.821973 43 24 11
0.549361 1.617506 -0.816802 43 23 11
0.558301 1.616296 -0.81744 42 22 11
0.562106 1.600578 -0.810727 43 23 12
0.56977 1.595965 -0.809638 41 21 10
0.581283 1.601902 -0.813916 42 22 11
0.589674 1.599201 -0.813806 41 21 10
0.596295 1.591842 -0.811318 41 21 10
0.598475 1.573104 -0.803002 40 20 9
0.609773 1.578211 -0.806863 41 21 9
0.621192 1.583423 -0.810783 39 19 8
0.626667 1.573682 -0.807027 37 17 6
0.636036 1.573722 -0.808277 34 15 3
0.644251 1.570959 -0.808073 33 15 3
0.650919 1.564589 -0.80599 34 16 4
0.659485 1.562846 -0.80627 34 16 4
0.668832 1.562973 -0.807496 34 16 4
0.678878 1.564713 -0.809534 34 15 3
-0.700855 1.068862 -0.498687 128 122 110
-0.699718 1.074943 -0.502181 129 123 111
-0.699859 1.083207 -0.506672 130 124 110
-0.695884 1.085376 -0.508281 130 124 110
-0.691773 1.087503 -0.509837 131 125 112
-0.688616 1.091298 -0.512143 133 127 114
-0.68606 1.096239 -0.514955 133 127 113
-0.683126 1.100794 -0.517553 133 127 114
-0.678818 1.103349 -0.519174 134 128 115
-0.67573 1.108062 -0.521776 135 129 115
-0.672417 1.11262 -0.524271 136 130 116
-0.669839 1.1186 -0.527402 136 130 116
-0.664483 1.120177 -0.528419 136 130 116
-0.660076 1.123502 -0.530226 137 131 117
-0.65615 1.127823 -0.532468 137 131 118
-0.651707 1.131447 -0.534346 139 133 119
-0.647548 1.135736 -0.536506 139 133 119
-0.643931 1.141161 -0.539171 139 133 120
-0.640559 1.147221 -0.542104 140 134 122
-0.636736 1.15268 -0.544724 141 135 122
-0.632861 1.158237 -0.547361 141 135 121
-0.626888 1.160129 -0.548238 141 135 121
-0.621265 1.162769 -0.549443 143 137 123
-0.616683 1.167466 -0.551597 143 137 123
-0.613911 1.175745 -0.555423 144 138 126
-0.609055 1.180243 -0.557441 144 138 126
-0.604162 1.184797 -0.559467 144 140 127
-0.59938 1.189691 -0.561637 145 141 128
-0.59545 1.196404 -0.564653 145 142 127
-0.591346 1.202927 -0.567565 145 142 129
-0.586982 1.209071 -0.570286 145 141 129
-0.582289 1.214671 -0.572741 147 141 129
-0.577222 1.219602 -0.574872 148 142 130
-0.571655 1.223566 -0.576541 148 142 128
-0.566356 1.228172 -0.578508 147 142 128
-0.562445 1.23588 -0.581935 145 141 129
-0.557085 1.240541 -0.583923 145 141 129
-0.551921 1.245714 -0.586151 146 142 130
-0.546933 1.251368 -0.588606 146 142 130
-0.542109 1.257489 -0.591282 147 142 130
-0.536977 1.262995 -0.593672 147 142 130
-0.531725 1.268301 -0.59597 148 142 130
-0.526867 1.274631 -0.598755 148 143 130
-0.521513 1.279858 -0.601025 149 143 131
-0.51605 1.284888 -0.603209 149 143 131
-0.510623 1.290075 -0.605473 149 144 131
-0.505157 1.295233 -0.607731 150 144 132
-0.499395 1.299697 -0.60967 150 144 132
-0.493661 1.304282 -0.611673 150 145 132
-0.489424 1.31291 -0.615583 151 145 133
-0.484059 1.31867 -0.618155 151 145 133
-0.47843 1.323791 -0.620437 151 145 133
-0.472535 1.328246 -0.622415 151 145 133
-0.467898 1.336325 -0.626102 151 145 133
-0.462176 1.341448 -0.628413 151 145 133
-0.455989 1.345289 -0.630132 151 145 133
-0.450326 1.350728 -0.632612 151 145 133
-0.444596 1.356056 -0.635049 151 145 133
-0.442217 1.371814 -0.642385 151 145 133
-0.438072 1.382489 -0.647348 151 145 133
-0.431157 1.38461 -0.648313 152 146 134
-0.42493 1.388952 -0.65033 152 146 134
-0.41962 1.396398 -0.653812 153 147 136
-0.413646 1.401793 -0.656344 154 147 136
-0.407524 1.406796 -0.658702 154 148 136
-0.4015 1.412243 -0.66128 155 149 137
-0.396198 1.42039 -0.665133 155 148 138
-0.390365 1.426841 -0.668202 156 149 139
-0.384726 1.434184 -0.6717 157 148 139
-0.378733 1.4404 -0.674681 157 148 139
-0.372606 1.446276 -0.677513 158 149 140
-0.367335 1.455692 -0.682015 158 149 140
-0.361995 1.465151 -0.686548 158 149 140
-0.355502 1.470197 -0.689023 158 149 140
-0.350842 1.483104 -0.695196 159 150 141
-0.344841 1.490747 -0.698911 158 150 140
-0.338916 1.498997 -0.702921 143 133 124
-0.332288 1.504397 -0.705604 131 121 113
-0.325638 1.509875 -0.708335 19 13 6
-0.319165 1.516386 -0.71156 19 13 6
-0.312765 1.523507 -0.715082 17 11 7
-0.305448 1.526354 -0.716607 12 6 3
-0.29882 1.532804 -0.719835 14 9 4
-0.293772 1.54783 -0.727104 144 137 128
-0.286574 1.552014 -0.729288 143 134 126
-0.280147 1.560655 -0.733577 141 132 124
-0.275075 1.577488 -0.741732 140 132 122
-0.268127 1.584213 -0.745143 136 128 116
-0.262007 1.596325 -0.7511 98 88 74
-0.2547 1.601699 -0.753896 82 70 56
-0.247375 1.60725 -0.756784 67 53 38
-0.24101 1.619557 -0.762867 57 38 24
-0.233467 1.624486 -0.765483 62 37 24
-0.225859 1.629243 -0.768027 65 37 25
-0.21863 1.637134 -0.772059 66 37 25
-0.211619 1.647284 -0.777169 68 38 27
-0.202852 1.643971 -0.775931 67 37 26
-0.194591 1.644591 -0.776557 68 39 27
-0.187322 1.65397 -0.781331 67 38 25
-0.179576 1.659757 -0.784418 64 36 23
-0.171013 1.658119 -0.784001 65 37 24
-0.162138 1.653064 -0.781973 63 35 21
-0.153174 1.646421 -0.779198 62 34 20
-0.144426 1.641426 -0.777207 60 31 17
-0.137059 1.652465 -0.782822 58 28 17
-0.12637 1.622043 -0.768783 55 26 14
-0.117034 1.605974 -0.761548 56 26 15
-0.110322 1.626386 -0.771632 55 26 14
-0.101588 1.617605 -0.767866 56 26 15
-0.093993 1.627119 -0.772797 58 28 17
-0.085804 1.627043 -0.773179 60 31 20
-0.078178 1.638849 -0.779221 61 33 21
-0.070038 1.641236 -0.780792 61 33 21
-0.062202 1.652473 -0.786586 61 33 21
-0.054409 1.668574 -0.794712 61 33 21
-0.030033 1.715627 -0.818588 61 33 21
-0.021498 1.7234 -0.822798 61 33 21
-0.012845 1.725135 -0.824135 60 33 20
-0.00417 1.724605 -0.824395 59 32 19
0.004519 1.729213 -0.827122 60 33 20
0.013217 1.72916 -0.827627 59 32 19
0.022053 1.739062 -0.832911 60 32 20
0.030427 1.718981 -0.823828 59 31 19
0.039992 1.757126 -0.842685 58 30 18
0.048768 1.754583 -0.842034 57 31 18
0.057101 1.739677 -0.835447 58 32 19
0.065956 1.741851 -0.837073 57 31 18
0.074981 1.747291 -0.84028 57 31 18
0.084195 1.755335 -0.844754 57 31 18
0.09389 1.770623 -0.852734 57 31 18
0.10183 1.753693 -0.845193 57 31 18
0.110844 1.755956 -0.846914 56 30 17
0.119347 1.750448 -0.844891 56 30 17
0.129406 1.76642 -0.853258 56 29 17
0.139441 1.779931 -0.860456 54 28 16
0.148772 1.783447 -0.862834 52 27 14
0.15763 1.78121 -0.862437 50 27 13
0.165785 1.771734 -0.858538 50 26 14
0.175584 1.779503 -0.863012 51 24 13
0.185268 1.785322 -0.866556 48 24 12
0.194228 1.783955 -0.866621 48 24 12
0.201009 1.763786 -0.857548 48 24 12
0.210694 1.769237 -0.860946 48 24 12
0.220715 1.776808 -0.865394 47 23 11
0.229741 1.776091 -0.865817 47 23 11
0.237813 1.768342 -0.862817 47 23 11
0.246796 1.767475 -0.863187 47 23 11
0.255443 1.764274 -0.862426 47 23 11
0.264207 1.76195 -0.862105 48 24 12
0.273124 1.76064 -0.862291 48 24 12
0.282174 1.760124 -0.86288 47 23 11
0.289157 1.747202 -0.857388 48 24 12
0.297371 1.74207 -0.855727 48 24 12
0.305428 1.736242 -0.853732 48 24 12
0.314037 1.733641 -0.853336 47 24 11
0.320467 1.719533 -0.847276 47 23 11
0.32867 1.715206 -0.846046 48 24 12
0.340038 1.726865 -0.852727 46 22 10
0.350156 1.731694 -0.856056 48 24 12
0.358238 1.726465 -0.854424 47 23 11
0.366305 1.721308 -0.852837 47 23 11
0.378228 1.733739 -0.859994 47 24 11
0.387476 1.733628 -0.860946 46 22 12
0.391912 1.712624 -0.851515 46 24 13
0.394338 1.683979 -0.838269 48 24 12
0.410023 1.71117 -0.852862 48 24 12
0.419263 1.711044 -0.85386 48 24 12
0.425333 1.698293 -0.848559 47 23 11
0.435122 1.700314 -0.850658 45 23 10
0.443089 1.695239 -0.849217 46 23 11
0.449816 1.68565 -0.84552 46 24 12
0.454985 1.670671 -0.839117 45 23 10
0.465039 1.673536 -0.841694 44 22 10
0.475099 1.676183 -0.844183 43 24 10
0.483098 1.671556 -0.843018 42 22 9
0.488976 1.659867 -0.838293 43 23 11
0.497199 1.65621 -0.837634 42 23 10
0.505325 1.652254 -0.836833 42 23 10
0.510377 1.638573 -0.831102 42 22 10
0.514747 1.623134 -0.824471 42 23 9
0.528009 1.635356 -0.831919 42 22 10
0.534019 1.625225 -0.827996 41 21 10
0.541703 1.620286 -0.826722 41 21 10
0.542303 1.594819 -0.814947 42 22 11
0.547895 1.584377 -0.810841 43 23 12
0.551236 1.567858 -0.803608 42 22 11
0.567012 1.586177 -0.814265 42 22 11
0.574392 1.580984 -0.812851 42 22 11
0.586059 1.587361 -0.817398 42 22 11
0.584855 1.559545 -0.804298 43 21 9
0.59582 1.564107 -0.8079 44 22 11
0.603048 1.558931 -0.806463 44 22 9
0.610524 1.554489 -0.805394 41 20 9
0.617218 1.548209 -0.803355 37 17 6
0.631359 1.560285 -0.81085 35 17 5
0.639868 1.558435 -0.811093 34 16 4
0.64665 1.552535 -0.809203 35 17 5
0.653816 1.547708 -0.807846 35 15 4
0.662582 1.546728 -0.808474 36 16 5
0.670492 1.543854 -0.808083 36 16 5
-0.716241 1.091151 -0.515261 128 122 110
-0.701034 1.075966 -0.508761 129 123 111
-0.698158 1.079557 -0.511108 129 123 111
-0.695033 1.082954 -0.513332 130 124 110
-0.690781 1.084784 -0.514781 130 124 112
-0.687549 1.088376 -0.517034 131 125 113
-0.684413 1.092312 -0.519418 131 125 111
-0.684163 1.101046 -0.524054 132 126 112
-0.679704 1.103298 -0.525568 133 127 113
-0.673958 1.103633 -0.526131 134 128 114
-0.669836 1.106759 -0.527989 136 130 116
-0.667226 1.112562 -0.53109 136 130 116
-0.664764 1.118845 -0.534386 137 131 117
-0.660558 1.122431 -0.536357 136 130 116
-0.656535 1.12651 -0.538528 137 131 117
-0.652029 1.12995 -0.540358 139 133 119
-0.649333 1.136701 -0.54374 138 132 118
-0.645273 1.141296 -0.546056 139 133 121
-0.641693 1.146928 -0.548837 139 133 121
-0.63786 1.152309 -0.551466 139 134 122
-0.633557 1.157031 -0.55375 140 134 122
-0.628746 1.160996 -0.555642 140 135 121
-0.621914 1.161366 -0.555786 142 135 121
-0.620455 1.17185 -0.56075 142 136 123
-0.615121 1.175282 -0.562312 143 137 125
-0.610333 1.179871 -0.564408 143 137 123
-0.604932 1.183407 -0.565979 142 139 126
-0.600209 1.188372 -0.568217 143 139 127
-0.596559 1.195598 -0.57152 144 140 128
-0.591788 1.200746 -0.573815 144 140 128
-0.587297 1.206586 -0.576429 144 140 127
-0.583035 1.213031 -0.57932 147 141 129
-0.57757 1.217103 -0.581069 147 141 129
-0.572298 1.221659 -0.583041 146 140 126
-0.567457 1.227223 -0.58549 147 141 127
-0.562804 1.233303 -0.58818 144 141 126
-0.557926 1.239001 -0.590685 145 141 129
-0.553233 1.245214 -0.593434 145 141 129
-0.548202 1.250773 -0.59587 146 142 130
-0.542622 1.255166 -0.597751 147 142 128
-0.537355 1.260343 -0.600008 147 142 129
-0.532196 1.265853 -0.602426 147 142 129
-0.527002 1.271363 -0.604848 147 142 129
-0.522327 1.278219 -0.607916 148 142 130
-0.516922 1.283398 -0.610189 148 142 130
-0.511214 1.287889 -0.612142 148 143 130
-0.505773 1.293111 -0.61445 149 143 131
-0.500084 1.297766 -0.616495 149 143 131
-0.494499 1.30275 -0.618703 149 143 131
-0.489313 1.308861 -0.621456 150 144 132
-0.484648 1.316481 -0.624934 150 144 132
-0.478881 1.321232 -0.627058 150 144 132
-0.472757 1.325053 -0.628749 150 145 132
-0.466784 1.329335 -0.630669 150 144 132
-0.462102 1.337379 -0.634385 150 144 132
-0.456953 1.344233 -0.637546 150 144 132
-0.450942 1.348664 -0.639566 150 144 132
-0.445001 1.353369 -0.641727 150 144 132
-0.439177 1.358503 -0.644101 150 144 132
-0.437725 1.377405 -0.65302 151 145 133
-0.431408 1.381398 -0.654874 151 145 133
-0.425167 1.38569 -0.65688 152 146 134
-0.420019 1.393656 -0.660641 152 146 134
-0.414035 1.399018 -0.663177 152 146 134
-0.407803 1.403646 -0.665375 152 146 134
-0.402319 1.41097 -0.668863 153 146 136
-0.396572 1.417554 -0.672011 154 147 137
-0.390793 1.424197 -0.675198 154 147 137
-0.385029 1.431075 -0.678507 155 147 137
-0.379479 1.438955 -0.682303 157 148 139
-0.373745 1.44637 -0.685889 157 148 139
-0.368304 1.455167 -0.690141 157 148 139
-0.362402 1.462404 -0.693665 157 148 139
-0.357243 1.472929 -0.69876 157 148 139
-0.351292 1.480516 -0.702472 158 149 140
-0.344869 1.486344 -0.705359 157 148 139
-0.339462 1.49682 -0.710465 145 136 127
-0.33291 1.50257 -0.713336 135 125 116
-0.32599 1.506826 -0.715508 21 15 8
-0.319719 1.51428 -0.719211 16 10 5
-0.312497 1.517429 -0.720877 22 17 12
-0.306379 1.526149 -0.725203 141 136 127
-0.300595 1.53696 -0.730534 144 138 128
-0.294005 1.544071 -0.734116 143 135 125
-0.287835 1.553764 -0.738938 140 131 120
-0.281656 1.563887 -0.743976 132 124 113
-0.275273 1.57338 -0.748725 95 86 73
-0.268621 1.581797 -0.752973 77 65 52
-0.261534 1.588034 -0.756192 66 47 34
-0.254208 1.593105 -0.758867 61 38 25
-0.247884 1.604926 -0.76477 61 37 23
-0.240397 1.609711 -0.767328 60 35 22
-0.233241 1.617062 -0.771121 62 35 23
-0.224991 1.617032 -0.7714 65 37 25
-0.219154 1.634922 -0.780246 64 36 24
-0.208373 1.615842 -0.771441 66 37 26
-0.199896 1.613714 -0.77074 66 37 26
-0.194434 1.636731 -0.78207 66 37 26
-0.184944 1.626307 -0.777419 67 38 27
-0.160795 1.632083 -0.781228 63 37 25
-0.15091 1.614604 -0.773214 63 40 27
-0.142524 1.612062 -0.772362 61 37 24
-0.13502 1.619779 -0.776436 57 32 20
-0.125784 1.606214 -0.770307 55 28 16
-0.117316 1.601238 -0.768302 56 27 16
-0.108988 1.597529 -0.76691 58 28 18
-0.10119 1.601623 -0.769274 59 29 18
-0.093395 1.606439 -0.771995 60 31 20
-0.086005 1.619856 -0.778864 61 33 21
-0.07819 1.627141 -0.782794 61 33 21
-0.060345 1.588041 -0.764815 61 33 21
-0.051947 1.575477 -0.759189 61 33 21
-0.030309 1.702089 -0.821696 60 33 20
-0.02174 1.702262 -0.822274 61 33 21
-0.013132 1.697016 -0.820238 59 33 20
-0.004589 1.699471 -0.821934 59 33 20
0.004015 1.712621 -0.82882 58 32 19
0.012648 1.713044 -0.829553 58 31 19
0.021169 1.704747 -0.826064 59 31 19
0.029929 1.71374 -0.83097 59 31 19
0.038602 1.715038 -0.832152 59 31 20
0.0471 1.709718 -0.830126 58 31 20
0.056251 1.725146 -0.838195 58 32 20
0.065234 1.732147 -0.842183 57 31 18
0.073776 1.727395 -0.840459 57 31 18
0.082148 1.720066 -0.837485 57 31 18
0.090869 1.720438 -0.838271 57 30 19
0.099481 1.718817 -0.838093 56 30 17
0.109762 1.743269 -0.850657 55 29 16
0.11794 1.733778 -0.846658 54 28 16
0.127034 1.737765 -0.849254 52 26 15
0.135859 1.737754 -0.849906 51 27 15
0.145404 1.746138 -0.85468 50 26 14
0.155247 1.75677 -0.860574 50 26 14
0.163703 1.751577 -0.858721 51 25 14
0.17366 1.761784 -0.864437 51 24 13
0.183392 1.768752 -0.86858 48 24 12
0.192615 1.770373 -0.87011 48 24 12
0.199505 1.751583 -0.861603 48 24 12
0.208154 1.748844 -0.861002 47 23 11
0.218208 1.757358 -0.86596 47 23 11
0.226509 1.751747 -0.863964 47 23 11
0.234387 1.743351 -0.8606 47 23 11
0.242359 1.736127 -0.85782 47 23 11
0.251412 1.736669 -0.858891 47 23 11
0.261217 1.74201 -0.862353 47 23 11
0.271222 1.748148 -0.866229 48 24 12
0.277056 1.728128 -0.857137 49 25 13
0.287662 1.737684 -0.862738 48 24 12
0.295104 1.72826 -0.85892 48 24 12
0.304356 1.729428 -0.860383 48 24 12
0.312493 1.724338 -0.85874 47 24 11
0.319483 1.713351 -0.854164 47 24 11
0.324691 1.693669 -0.845247 47 23 11
0.329854 1.674696 -0.836679 46 22 10
0.341721 1.68931 -0.844922 47 23 11
0.354043 1.705223 -0.853848 48 23 11
0.360537 1.693203 -0.84879 46 22 10
0.366905 1.68107 -0.843677 47 23 12
0.376308 1.682801 -0.84554 46 23 13
0.385982 1.685502 -0.84791 46 24 12
0.39632 1.69075 -0.851584 46 24 11
0.403023 1.680662 -0.847538 45 23 10
0.410975 1.675931 -0.846204 46 24 11
0.418414 1.669257 -0.843898 47 24 12
0.427199 1.667933 -0.844311 47 24 11
0.438315 1.675346 -0.849173 47 23 11
0.443801 1.6615 -0.843259 47 25 12
0.452241 1.658797 -0.843013 46 24 11
0.457881 1.646131 -0.837703 45 24 10
0.465 1.638991 -0.835211 45 23 10
0.482294 1.66676 -0.850563 44 23 10
0.483308 1.638799 -0.837454 43 24 10
0.493788 1.642892 -0.840745 43 24 10
0.502015 1.639445 -0.840187 42 22 10
0.507645 1.627777 -0.835414 44 23 10
0.512742 1.614754 -0.82994 43 22 9
0.519811 1.608111 -0.827747 42 22 11
0.529764 1.610257 -0.830093 41 21 10
0.527117 1.575022 -0.813128 42 22 11
0.536106 1.574662 -0.814175 41 22 9
0.544054 1.571248 -0.813646 41 21 10
0.552112 1.56817 -0.813293 42 22 10
0.557652 1.558156 -0.809334 41 21 10
0.569014 1.564207 -0.813732 41 22 9
0.569485 1.540877 -0.802812 42 22 11
0.574369 1.529828 -0.798272 44 22 10
0.585441 1.535104 -0.802258 43 21 9
0.597252 1.54206 -0.807129 43 21 9
0.605565 1.539979 -0.80726 43 21 10
0.608449 1.524486 -0.800327 40 20 9
0.610925 1.508433 -0.793063 37 18 6
0.632473 1.538703 -0.81019 38 18 7
0.637892 1.529877 -0.806699 37 17 6
0.637324 1.507316 -0.795908 37 17 6
0.657271 1.532698 -0.810454 37 17 6
0.666419 1.532872 -0.81164 35 16 5
-0.701959 1.068738 -0.510695 127 121 109
-0.702853 1.077787 -0.515727 128 122 110
-0.697671 1.077811 -0.516407 130 124 111
-0.692336 1.07773 -0.517004 130 124 110
-0.688417 1.079978 -0.518685 130 124 112
-0.684296 1.082078 -0.520261 131 125 111
-0.681669 1.086703 -0.523021 131 125 111
-0.677967 1.089826 -0.525022 132 126 112
-0.675416 1.094979 -0.527969 132 126 112
-0.673232 1.100947 -0.531275 134 128 114
-0.670714 1.106603 -0.534396 134 128 114
-0.668374 1.112782 -0.537736 134 128 114
-0.664669 1.116926 -0.540055 136 130 116
-0.661179 1.12163 -0.54261 136 130 116
-0.657511 1.126238 -0.545082 136 130 116
-0.653065 1.129714 -0.54697 138 132 118
-0.647531 1.131482 -0.547994 139 133 119
-0.646704 1.141615 -0.553042 138 132 118
-0.641563 1.144428 -0.554505 138 132 118
-0.637023 1.148461 -0.556528 140 134 120
-0.633823 1.155078 -0.559774 140 134 120
-0.62979 1.16039 -0.562358 141 135 121
-0.625505 1.165417 -0.564775 141 135 121
-0.62029 1.168874 -0.566404 142 136 122
-0.616971 1.176039 -0.569808 142 136 123
-0.611566 1.179423 -0.571353 143 137 123
-0.606057 1.182712 -0.572833 141 137 125
-0.601925 1.188797 -0.575649 143 139 127
-0.596372 1.192225 -0.577159 143 139 127
-0.592253 1.198617 -0.580091 143 140 125
-0.588231 1.205363 -0.583181 143 139 127
-0.583193 1.210178 -0.585322 145 140 128
-0.576979 1.212647 -0.586318 146 141 127
-0.572597 1.219018 -0.589195 143 140 125
-0.568404 1.225932 -0.592327 145 142 127
-0.563271 1.230952 -0.594538 144 141 126
-0.559111 1.238199 -0.597821 145 141 128
-0.554361 1.24428 -0.600538 145 141 129
-0.548974 1.249034 -0.602612 146 141 129
-0.543344 1.253304 -0.604452 147 141 127
-0.537981 1.258251 -0.606621 146 141 127
-0.533313 1.264906 -0.609616 146 141 127
-0.528493 1.271317 -0.612496 147 141 127
-0.523429 1.277249 -0.61515 147 141 128
-0.51709 1.280144 -0.616343 147 142 128
-0.511762 1.285568 -0.618762 147 142 129
-0.506586 1.291456 -0.62141 148 142 130
-0.501029 1.29646 -0.62364 148 142 130
-0.495096 1.300555 -0.625438 148 143 131
-0.489612 1.305875 -0.627835 149 143 131
-0.485109 1.313916 -0.63155 149 143 131
-0.479625 1.319441 -0.634063 149 143 131
-0.473313 1.322755 -0.63552 150 144 132
-0.467453 1.327363 -0.63761 150 144 132
-0.46241 1.334375 -0.640866 149 144 131
-0.457318 1.341384 -0.644129 149 143 131
-0.451592 1.346663 -0.646571 149 143 131
-0.445531 1.351018 -0.648579 149 143 131
-0.441895 1.36287 -0.6542 149 143 131
-0.437831 1.373707 -0.659343 149 143 131
-0.431216 1.376744 -0.660749 149 143 131
-0.425866 1.383885 -0.664138 150 144 132
-0.420472 1.391054 -0.66755 150 144 132
-0.414609 1.396826 -0.670302 151 145 133
-0.408682 1.402505 -0.673021 152 146 134
-0.402916 1.408876 -0.676083 152 145 135
-0.397304 1.415952 -0.679495 152 145 135
-0.391539 1.422664 -0.682742 153 146 136
-0.385892 1.429994 -0.686298 154 147 137
-0.380303 1.437756 -0.690072 155 148 138
-0.374633 1.445445 -0.693822 154 147 137
-0.368747 1.452522 -0.697289 155 148 138
-0.362287 1.457522 -0.69977 156 147 138
-0.357109 1.467909 -0.704849 156 147 138
-0.351256 1.475851 -0.708766 156 148 138
-0.344696 1.481045 -0.711371 157 148 139
-0.339424 1.492039 -0.716777 145 137 127
-0.333211 1.499263 -0.720382 136 128 118
-0.326317 1.503627 -0.722621 86 77 69
-0.319269 1.507405 -0.724589 150 142 136
-0.31269 1.513561 -0.727712 148 140 131
-0.307473 1.526694 -0.734203 145 137 126
-0.301076 1.534463 -0.738124 142 135 123
-0.294784 1.543126 -0.742487 123 115 103
-0.288139 1.550304 -0.746145 87 76 63
-0.281572 1.558252 -0.750185 77 64 52
-0.275097 1.567114 -0.754677 54 36 22
-0.267608 1.570509 -0.756544 57 36 22
-0.259403 1.569725 -0.756405 63 36 24
-0.254656 1.590365 -0.766611 64 36 24
-0.246789 1.592222 -0.767766 65 37 25
-0.238888 1.593903 -0.768845 64 36 24
-0.231161 1.596844 -0.770542 66 37 24
-0.224596 1.608234 -0.776329 65 36 24
-0.216262 1.607297 -0.776171 64 36 24
-0.207382 1.602 -0.773912 64 36 24
-0.200041 1.608572 -0.7774 64 37 24
-0.191931 1.609195 -0.77802 62 35 23
-0.180057 1.576822 -0.762672 62 36 24
-0.15981 1.536011 -0.743557 83 63 49
-0.152378 1.539588 -0.745623 134 122 107
-0.145823 1.552881 -0.75241 82 73 60
-0.140567 1.582307 -0.767038 92 83 69
-0.133405 1.592437 -0.77232 118 106 92
-0.126001 1.600737 -0.776724 112 98 84
-0.11706 1.589148 -0.771474 61 38 26
-0.109165 1.59113 -0.772824 59 34 22
-0.101294 1.593748 -0.774491 59 31 20
-0.092689 1.584111 -0.770202 59 31 20
-0.086477 1.617841 -0.787032 61 33 22
-0.077312 1.59688 -0.777241 62 34 22
-0.066962 1.543129 -0.751462 62 34 22
-0.059361 1.547902 -0.754205 62 34 22
-0.051756 1.554025 -0.757617 61 33 21
-0.045639 1.616598 -0.788602 60 32 20
-0.038066 1.642515 -0.801722 60 32 20
-0.03042 1.679442 -0.820245 60 33 21
-0.021936 1.678334 -0.820193 59 33 20
-0.013424 1.671837 -0.81751 58 32 19
-0.004995 1.674348 -0.819242 58 32 19
0.003475 1.681624 -0.823318 58 32 19
0.01204 1.691231 -0.828551 58 32 19
