ply
format ascii 1.0
comment ---
element vertex 1210
property float x
property float y
property float z
property uchar red
property uchar green
property uchar blue
element face 0
property list uchar uint vertex_indices
end_header
-0.338868 1.587949 -0.638359 228 226 216
-0.331308 1.597697 -0.640997 230 227 218
-0.323707 1.610932 -0.644792 230 226 217
-0.315964 1.622611 -0.648055 230 227 217
-0.308122 1.636825 -0.652154 231 227 218
-0.300141 1.645622 -0.654434 231 227 217
-0.292088 1.651187 -0.655629 231 227 217
-0.283897 1.665544 -0.659741 231 227 217
-0.275619 1.676028 -0.662554 231 227 217
-0.267334 1.681427 -0.663669 231 227 216
-0.259019 1.685654 -0.664389 231 226 216
-0.250218 1.705169 -0.670164 230 226 215
-0.241768 1.70844 -0.67055 230 225 215
-0.232687 1.727101 -0.676012 230 224 215
-0.223887 1.734882 -0.677869 230 224 215
-0.215347 1.735523 -0.677364 231 224 216
-0.206756 1.736813 -0.67707 230 223 213
-0.197814 1.743737 -0.678622 230 223 213
-0.188193 1.760186 -0.683291 228 221 214
-0.179092 1.766395 -0.684588 229 222 214
-0.169109 1.78371 -0.68951 228 221 211
-0.157701 1.81699 -0.699634 225 218 208
-0.147632 1.829882 -0.703069 224 217 207
-0.137771 1.838733 -0.705172 224 215 206
-0.127854 1.847049 -0.70709 223 214 205
-0.117095 1.86296 -0.711466 221 212 203
-0.107136 1.869313 -0.71272 219 211 202
-0.096039 1.885474 -0.717145 216 208 199
-0.085606 1.894094 -0.71911 214 206 197
-0.074208 1.910001 -0.723419 212 203 194
-0.063472 1.919 -0.725479 210 201 193
-0.052232 1.931061 -0.728514 209 200 191
-0.041011 1.94187 -0.73113 207 198 189
-0.029885 1.951007 -0.733195 205 196 187
-0.018634 1.960195 -0.735263 204 195 186
-0.006685 1.973311 -0.738578 200 192 182
0.004792 1.982295 -0.740555 198 190 180
0.015454 1.985374 -0.74063 195 187 177
0.028228 2.001092 -0.744735 192 184 173
0.040206 2.010973 -0.746961 187 181 169
0.05258 2.022439 -0.749679 182 176 164
0.065089 2.033894 -0.75238 178 172 160
0.077925 2.046399 -0.755402 174 168 156
0.090258 2.05548 -0.757324 173 167 155
0.101083 2.056241 -0.756603 172 165 153
0.111227 2.053504 -0.754774 170 164 152
0.121509 2.051577 -0.753203 169 163 150
0.13141 2.04794 -0.751097 168 161 147
0.141123 2.043647 -0.748789 166 158 144
0.150338 2.037357 -0.745861 164 156 142
0.15945 2.030992 -0.742919 164 156 142
0.16831 2.023946 -0.739774 163 155 141
0.177198 2.017482 -0.736825 161 154 140
0.18682 2.014542 -0.734991 157 150 136
0.196389 2.011728 -0.733207 154 147 133
0.205305 2.006668 -0.730737 156 151 136
0.214183 2.001942 -0.728386 148 142 126
0.222507 1.995579 -0.725544 149 140 125
0.230494 1.988524 -0.722507 146 136 122
0.239199 1.984754 -0.72051 149 137 123
0.248259 1.982802 -0.719095 149 138 123
0.259506 1.989166 -0.720271 152 139 124
-0.367732 1.549094 -0.635772 223 221 209
-0.360237 1.551563 -0.636 223 221 209
-0.35324 1.569263 -0.641423 225 223 211
-0.345787 1.57703 -0.643445 227 225 213
-0.338261 1.584802 -0.645462 228 225 214
-0.330632 1.590926 -0.646911 228 226 214
-0.323181 1.613318 -0.653881 229 226 215
-0.315469 1.631054 -0.659252 230 227 216
-0.307528 1.636525 -0.66045 231 227 217
-0.299533 1.641825 -0.661585 231 227 217
-0.291478 1.648789 -0.663276 231 227 217
-0.283229 1.668475 -0.669257 231 227 217
-0.274974 1.675349 -0.670898 231 227 216
-0.2667 1.679611 -0.671653 230 226 216
-0.25836 1.6847 -0.67268 230 226 215
-0.249598 1.702368 -0.677928 229 224 214
-0.241073 1.707834 -0.679064 229 224 214
-0.231802 1.73093 -0.686104 229 223 214
-0.223215 1.733085 -0.686109 230 223 214
-0.214467 1.737908 -0.687003 230 223 215
-0.205809 1.739998 -0.686978 230 223 213
-0.196773 1.747993 -0.688917 228 221 211
-0.187418 1.75962 -0.692058 228 221 213
-0.178198 1.767384 -0.6939 227 220 212
-0.167171 1.798612 -0.703531 225 218 208
-0.157065 1.813925 -0.707849 224 217 207
-0.147065 1.825927 -0.711054 224 215 206
-0.137002 1.837108 -0.713973 222 214 205
-0.126221 1.854613 -0.718969 220 212 203
-0.116342 1.860936 -0.720254 218 210 201
-0.106357 1.867473 -0.7216 216 208 199
-0.095095 1.88505 -0.726573 213 206 196
-0.084357 1.896227 -0.729422 212 203 194
-0.073765 1.905022 -0.731474 210 201 192
-0.063055 1.913854 -0.733526 208 199 190
-0.051256 1.93032 -0.738067 206 197 188
-0.040447 1.937908 -0.739685 204 195 186
-0.029662 1.944569 -0.740989 202 194 184
-0.017778 1.958274 -0.744581 200 191 182
-0.0058 1.971493 -0.747998 196 188 177
0.005411 1.978667 -0.749432 194 186 175
0.017085 1.988147 -0.751606 192 184 173
0.02971 2.00271 -0.755416 188 180 169
0.04152 2.011412 -0.75731 183 177 165
0.053666 2.021417 -0.759616 180 174 162
0.066042 2.032021 -0.762102 175 169 157
0.078254 2.041053 -0.764069 171 165 153
0.090585 2.050143 -0.766045 171 165 153
0.101835 2.053135 -0.76605 169 163 151
0.112063 2.050821 -0.764347 167 161 148
0.122152 2.047931 -0.762461 165 158 145
0.132722 2.047493 -0.761364 162 155 141
0.14187 2.040499 -0.758172 158 151 138
0.151021 2.03392 -0.755122 155 150 136
0.160054 2.027217 -0.752043 154 149 135
0.168719 2.01934 -0.748601 151 147 132
0.178135 2.015149 -0.746343 149 144 129
0.187861 2.012612 -0.744623 145 138 122
0.196812 2.007242 -0.742014 143 134 118
0.205447 2.00108 -0.739169 145 139 123
0.214616 1.997532 -0.737167 134 124 108
0.223679 1.994017 -0.735191 139 127 112
0.232301 1.989316 -0.732857 138 127 110
0.240181 1.982409 -0.729847 141 129 114
0.249404 1.981017 -0.728594 143 131 116
0.255544 1.969086 -0.724048 146 134 118
-0.367154 1.546771 -0.642996 222 221 209
-0.359914 1.555899 -0.645539 223 222 210
-0.352517 1.562828 -0.647313 225 223 211
-0.34529 1.577865 -0.651886 226 224 212
-0.337903 1.592198 -0.656203 227 225 213
-0.330464 1.610998 -0.66205 228 226 214
-0.322709 1.620157 -0.664556 229 226 214
-0.314862 1.62883 -0.666887 229 226 215
-0.306908 1.632149 -0.667367 230 226 216
-0.298921 1.636982 -0.668364 230 227 216
-0.290806 1.65686 -0.674519 230 226 217
-0.282571 1.669493 -0.678173 230 226 216
-0.274304 1.675861 -0.67967 230 226 215
-0.266033 1.679125 -0.680099 229 225 214
-0.257531 1.690284 -0.68322 229 224 213
-0.248903 1.701859 -0.686472 228 223 213
-0.240188 1.712497 -0.689393 228 223 213
-0.231454 1.720787 -0.691504 228 222 213
-0.22239 1.734531 -0.695461 229 222 213
-0.213651 1.738755 -0.696171 228 221 211
-0.204746 1.74508 -0.697587 227 220 210
-0.195896 1.74923 -0.698259 227 220 212
-0.185942 1.769859 -0.7045 226 219 209
-0.176583 1.778686 -0.706733 227 220 211
-0.16628 1.798948 -0.712814 224 217 207
-0.156883 1.804944 -0.714067 225 216 208
-0.148073 1.803009 -0.712643 224 215 206
-0.136403 1.833424 -0.722091 220 212 203
-0.125832 1.848636 -0.726406 218 210 201
-0.115885 1.855786 -0.728001 216 208 199
-0.104909 1.871987 -0.732618 213 206 196
-0.094603 1.880318 -0.734584 211 203 194
-0.083864 1.891538 -0.737504 209 201 192
-0.073191 1.901051 -0.739842 207 198 189
-0.062629 1.908697 -0.741545 205 196 187
-0.050207 1.930029 -0.74779 203 194 185
-0.039807 1.934412 -0.748382 201 193 183
-0.028778 1.942836 -0.750307 199 191 181
-0.016235 1.961027 -0.755456 196 188 178
-0.004721 1.970878 -0.757825 194 186 175
0.006745 1.979595 -0.759807 191 183 172
0.018728 1.990854 -0.762616 188 180 169
0.03046 1.999734 -0.764628 185 177 166
0.04244 2.009405 -0.766889 179 173 161
0.05468 2.019874 -0.7694 176 170 158
0.066666 2.028219 -0.771202 172 166 154
0.078827 2.036951 -0.77312 168 164 151
0.090796 2.044121 -0.774518 167 163 150
0.101975 2.046803 -0.774441 164 158 145
0.112479 2.045947 -0.773207 160 154 141
0.122608 2.043293 -0.771388 155 150 136
0.133318 2.043543 -0.770517 151 146 132
0.143329 2.04058 -0.768603 147 140 125
0.152137 2.032379 -0.764995 142 135 119
0.160638 2.023289 -0.761109 136 126 109
0.169797 2.01757 -0.758328 117 94 79
0.179278 2.013621 -0.756129 112 83 68
0.188642 2.009536 -0.753896 109 76 61
0.197075 2.002062 -0.750583 109 76 62
0.20565 1.995703 -0.747644 106 71 58
0.215102 1.993284 -0.745987 102 67 53
0.22473 1.991942 -0.744688 106 75 60
0.233115 1.986319 -0.742032 118 96 80
0.241045 1.979596 -0.739042 127 112 96
0.249845 1.976643 -0.737278 134 121 104
0.262946 1.989514 -0.740583 140 128 112
-0.367136 1.55757 -0.654844 222 220 207
-0.359688 1.562984 -0.656116 224 222 210
-0.352755 1.585325 -0.663334 225 223 212
-0.345434 1.601539 -0.668381 226 224 212
-0.337441 1.595676 -0.665671 227 225 213
-0.329847 1.608029 -0.669347 227 225 213
-0.322138 1.620572 -0.673079 228 226 214
-0.314221 1.623343 -0.673384 228 226 214
-0.306276 1.625554 -0.67349 229 226 214
-0.298288 1.652716 -0.682295 229 226 215
-0.290155 1.659016 -0.68381 229 225 215
-0.281923 1.668675 -0.686487 228 224 213
-0.273645 1.675049 -0.688013 228 223 213
-0.265264 1.683272 -0.690175 228 223 212
-0.256731 1.694179 -0.693258 228 223 212
-0.24808 1.705284 -0.6964 228 222 212
-0.23951 1.710816 -0.697603 228 221 212
-0.230843 1.717239 -0.699107 228 221 212
-0.221808 1.730301 -0.702895 227 220 211
-0.212998 1.736063 -0.704154 227 220 210
-0.204298 1.738588 -0.704292 227 220 211
-0.195011 1.750391 -0.707615 227 220 212
-0.184742 1.775467 -0.715483 225 218 210
-0.175123 1.787411 -0.718824 224 217 209
-0.165807 1.793465 -0.720135 224 215 206
-0.156961 1.79264 -0.719085 223 214 207
-0.146402 1.812086 -0.724958 221 212 205
-0.135735 1.830404 -0.730427 218 210 201
-0.125453 1.842473 -0.733747 216 208 199
-0.115528 1.849525 -0.735346 214 206 197
-0.104039 1.870754 -0.741755 211 203 194
-0.093645 1.879775 -0.743997 209 200 191
-0.083186 1.88838 -0.746087 206 198 188
-0.072373 1.899042 -0.748863 203 195 185
-0.061256 1.91109 -0.752094 202 194 184
-0.04971 1.92533 -0.756051 200 192 182
-0.039239 1.930294 -0.756863 198 190 180
-0.026696 1.949601 -0.762498 196 188 177
-0.015641 1.957049 -0.764124 195 187 175
-0.004023 1.967589 -0.766777 191 183 172
0.007648 1.977609 -0.769243 189 181 170
0.019074 1.985294 -0.770915 185 177 166
0.031369 1.997629 -0.774131 183 176 164
0.042708 2.003455 -0.775159 180 174 162
0.053548 2.005966 -0.775072 176 170 158
0.065692 2.01546 -0.777308 172 166 154
0.078829 2.029686 -0.781107 167 161 149
0.090189 2.03374 -0.781511 162 157 144
0.101512 2.037333 -0.781758 152 146 132
0.11211 2.037095 -0.780731 146 138 123
0.122472 2.035716 -0.779326 139 128 112
0.133222 2.03625 -0.778555 124 105 88
0.143959 2.036735 -0.777769 108 74 57
0.15344 2.031594 -0.775131 104 67 50
0.162016 2.022795 -0.771297 103 66 49
0.171094 2.016673 -0.768355 99 62 46
0.180009 2.01028 -0.765334 101 64 48
0.189388 2.006258 -0.763102 105 69 53
0.198192 2.000292 -0.760245 108 70 54
0.206629 1.993359 -0.757086 108 68 53
0.215934 1.990343 -0.75522 105 64 47
0.225161 1.987451 -0.753408 103 62 45
0.233792 1.982772 -0.751029 100 63 42
0.241597 1.975597 -0.747855 99 65 46
0.250592 1.973352 -0.746302 103 71 52
0.260597 1.975183 -0.746087 125 105 87
-0.37416 1.554227 -0.662415 219 217 204
-0.366812 1.561444 -0.664355 221 219 206
-0.359554 1.572779 -0.66776 222 220 208
-0.35265 1.59804 -0.676123 224 222 210
-0.344562 1.589702 -0.672493 225 223 211
-0.336737 1.589089 -0.671619 226 224 212
-0.329238 1.605759 -0.676889 227 225 213
-0.321501 1.616647 -0.680092 227 225 213
-0.313593 1.619818 -0.680548 227 225 213
-0.305663 1.624976 -0.681704 227 224 213
-0.297662 1.64723 -0.688906 227 222 212
-0.289529 1.655431 -0.691121 227 222 212
-0.281294 1.665373 -0.693943 227 222 212
-0.272967 1.674955 -0.696628 227 222 212
-0.264533 1.684963 -0.699455 227 222 211
-0.25605 1.692928 -0.701553 227 221 211
-0.247328 1.706021 -0.705445 227 221 211
-0.238797 1.709904 -0.706092 227 220 211
-0.230217 1.713883 -0.706768 227 220 210
-0.22107 1.729375 -0.71147 226 219 209
-0.21229 1.734316 -0.712468 226 219 211
-0.203808 1.732765 -0.711191 225 218 210
-0.19403 1.752939 -0.717494 225 218 210
-0.184187 1.770871 -0.722996 224 217 209
-0.17365 1.796027 -0.730994 222 215 205
-0.164577 1.798034 -0.730922 222 214 204
-0.154789 1.808596 -0.733816 220 211 204
-0.144725 1.820978 -0.73733 218 210 203
-0.134797 1.83028 -0.739763 216 208 200
-0.124996 1.837048 -0.741309 214 206 198
-0.112974 1.865277 -0.750261 211 203 194
-0.10315 1.869564 -0.750923 209 200 191
-0.09275 1.878521 -0.753189 205 197 188
-0.082093 1.888744 -0.755879 203 195 185
-0.07129 1.899126 -0.758612 201 192 183
-0.060786 1.90607 -0.760151 199 191 181
-0.050009 1.914395 -0.762155 197 189 179
-0.038195 1.929606 -0.766506 196 187 177
-0.027272 1.937151 -0.768219 194 186 175
-0.014877 1.954153 -0.77315 194 186 175
-0.003697 1.961719 -0.774845 189 181 170
0.00717 1.966603 -0.775617 187 179 168
0.018899 1.976401 -0.778052 183 175 164
0.0307 1.985878 -0.780367 179 173 161
0.042406 1.994086 -0.78224 175 169 157
0.053163 1.996293 -0.782069 170 164 152
0.064403 2.00093 -0.782716 161 156 144
0.076316 2.008842 -0.784463 156 148 135
0.088256 2.016385 -0.786077 139 126 110
0.09955 2.020185 -0.786422 127 106 90
0.110937 2.024211 -0.786838 119 90 74
0.121316 2.023153 -0.785542 114 78 60
0.131801 2.022651 -0.784435 104 65 47
0.14329 2.026833 -0.784898 96 56 38
0.153503 2.025148 -0.783396 92 54 36
0.163186 2.021304 -0.781177 91 53 35
0.172126 2.014557 -0.777997 91 53 36
0.180568 2.00616 -0.774277 96 57 40
0.190165 2.003053 -0.772331 105 66 48
0.200182 2.001977 -0.77107 107 69 50
0.209257 1.997472 -0.768679 107 67 49
0.217163 1.988891 -0.764949 107 65 46
0.226447 1.986173 -0.763178 106 64 44
0.234544 1.97947 -0.760103 106 64 43
0.24193 1.970764 -0.756384 105 64 43
0.250798 1.968087 -0.754673 104 63 43
0.262622 1.976365 -0.756586 105 65 45
-0.373756 1.555883 -0.671158 219 217 204
-0.36603 1.554708 -0.670083 221 219 206
-0.359161 1.575957 -0.677134 223 221 208
-0.351952 1.59299 -0.682642 224 222 210
-0.344208 1.59655 -0.683264 225 223 211
-0.336337 1.595857 -0.682347 225 223 211
-0.328618 1.603144 -0.68431 226 224 212
-0.320821 1.609699 -0.686002 226 223 212
-0.313008 1.621994 -0.689754 226 223 211
-0.305077 1.63443 -0.693545 226 222 211
-0.297034 1.640688 -0.695108 226 222 211
-0.288925 1.647513 -0.696868 226 222 211
-0.280637 1.664137 -0.702132 226 221 211
-0.27234 1.671223 -0.703968 226 221 211
-0.263931 1.680135 -0.70645 226 221 210
-0.255412 1.689756 -0.709177 226 220 210
-0.246725 1.701613 -0.712692 226 220 210
-0.238198 1.705562 -0.713379 226 219 209
-0.229056 1.723502 -0.719038 225 218 209
-0.220404 1.726676 -0.719435 225 218 208
-0.211845 1.727196 -0.718885 225 218 208
-0.202568 1.740394 -0.722827 223 216 208
-0.193121 1.754086 -0.726931 223 216 208
-0.18338 1.770011 -0.731811 222 215 207
-0.172804 1.795413 -0.740022 220 213 205
-0.163256 1.803602 -0.742137 219 212 204
-0.153687 1.810835 -0.743907 218 211 203
-0.143393 1.825554 -0.748302 215 208 200
-0.13319 1.837436 -0.751686 214 206 198
-0.12361 1.841322 -0.752249 212 204 195
-0.112604 1.858878 -0.757599 209 201 192
-0.102348 1.867423 -0.759776 206 197 188
-0.092441 1.871813 -0.76049 202 194 185
-0.081632 1.883464 -0.763733 200 192 182
-0.070728 1.894741 -0.766832 197 189 179
-0.060164 1.902191 -0.768585 195 187 177
-0.048859 1.91456 -0.77204 194 186 176
-0.037978 1.922687 -0.774007 193 185 174
-0.026502 1.934277 -0.777165 191 183 172
-0.015173 1.943866 -0.779616 193 185 174
-0.003853 1.95257 -0.781749 188 180 169
0.006982 1.957424 -0.782541 183 175 164
0.017749 1.96139 -0.783018 178 170 158
0.030473 1.976757 -0.78742 168 161 148
0.041633 1.981921 -0.788292 157 149 136
0.052703 1.986151 -0.788836 145 136 123
0.063685 1.98955 -0.789089 133 118 104
0.075614 1.997734 -0.790977 113 83 67
0.087175 2.003484 -0.792023 107 73 54
0.098412 2.007228 -0.792376 109 70 51
0.108157 2.00337 -0.790128 110 70 51
0.118321 2.001711 -0.788633 105 65 46
0.131121 2.012532 -0.791392 96 54 35
0.142348 2.015652 -0.791522 97 54 35
0.153437 2.018071 -0.791413 95 54 36
0.163201 2.01467 -0.789329 95 55 37
0.172172 2.008143 -0.786193 96 55 37
0.181114 2.001925 -0.783171 102 61 44
0.19144 2.00183 -0.782229 106 67 49
0.201544 2.001054 -0.781063 106 68 49
0.211182 1.998719 -0.77938 106 66 46
0.219957 1.993421 -0.776709 105 62 43
0.228228 1.986716 -0.773579 107 63 43
0.237245 1.983371 -0.771593 107 63 42
0.244159 1.97283 -0.767208 108 62 42
0.252206 1.967108 -0.764458 107 62 41
0.261034 1.964751 -0.762851 108 63 41
-0.380409 1.545197 -0.676051 217 215 202
-0.372891 1.547869 -0.676383 219 217 204
-0.365432 1.552386 -0.677392 220 218 205
-0.358522 1.572729 -0.684214 222 220 208
-0.351062 1.582034 -0.686966 223 221 209
-0.343411 1.58755 -0.688322 224 222 210
-0.335666 1.591108 -0.688955 225 223 211
-0.327985 1.600093 -0.691571 225 223 211
-0.320231 1.610061 -0.694539 225 222 211
-0.312414 1.624175 -0.699011 225 222 210
-0.304442 1.632284 -0.701282 225 221 210
-0.296383 1.644414 -0.70501 225 220 209
-0.288197 1.65766 -0.709133 225 220 210
-0.279951 1.664797 -0.711025 225 220 209
-0.271643 1.671329 -0.71269 225 220 209
-0.263342 1.67444 -0.71311 225 219 209
-0.254718 1.68842 -0.717461 225 219 209
-0.246209 1.694211 -0.718838 225 218 208
-0.237522 1.703172 -0.721354 224 218 208
-0.228267 1.72365 -0.728017 224 217 207
-0.219664 1.725416 -0.727918 223 216 206
-0.210926 1.729298 -0.728577 223 216 206
-0.201692 1.74118 -0.732108 222 215 205
-0.19231 1.753397 -0.735749 221 214 206
-0.182305 1.773079 -0.742054 219 212 203
-0.172124 1.79229 -0.748173 219 212 204
-0.162931 1.795746 -0.748635 218 211 203
-0.153526 1.801198 -0.749805 217 209 202
-0.143259 1.815907 -0.754274 215 208 200
-0.132636 1.832734 -0.759483 212 205 196
-0.122859 1.838741 -0.760821 210 202 194
-0.111767 1.857043 -0.766526 207 198 189
-0.101633 1.864328 -0.768298 202 194 185
-0.091433 1.871359 -0.769971 199 191 182
-0.081078 1.878906 -0.771819 195 187 177
-0.06989 1.892541 -0.775811 191 184 173
-0.058489 1.906582 -0.779933 190 183 172
-0.048088 1.911694 -0.780887 189 183 171
-0.037325 1.918899 -0.782571 188 181 170
-0.026307 1.927213 -0.784637 187 180 168
-0.015145 1.935753 -0.786772 188 180 169
-0.004045 1.943139 -0.788492 182 174 163
0.006727 1.947772 -0.789236 167 160 145
0.017508 1.952015 -0.789836 152 141 124
0.028177 1.955177 -0.790052 137 122 107
0.040704 1.968824 -0.793927 117 92 77
0.051771 1.973309 -0.794589 111 80 67
0.062172 1.973769 -0.793842 112 75 60
0.073704 1.980153 -0.795156 111 71 53
0.086708 1.993754 -0.79897 113 72 52
0.097026 1.993002 -0.797788 114 71 52
0.107248 1.991783 -0.796444 112 69 50
0.117183 1.989234 -0.794641 106 64 44
0.126889 1.985742 -0.792514 101 58 39
0.142283 2.008461 -0.799442 98 55 36
0.15252 2.007152 -0.798064 102 59 40
0.161822 2.001908 -0.795335 100 57 39
0.171186 1.997282 -0.792826 101 58 40
0.181834 1.998361 -0.792284 107 65 48
0.192033 1.997743 -0.791164 111 70 52
0.202605 1.998852 -0.790642 111 70 50
0.212728 1.998398 -0.789589 109 66 47
0.221982 1.994892 -0.787503 107 63 44
0.230689 1.989759 -0.784871 109 64 43
0.238954 1.983513 -0.781875 106 61 41
0.247281 1.978079 -0.77917 108 63 42
0.254921 1.970763 -0.775842 108 63 42
0.264329 1.970327 -0.774867 108 64 42
-0.379886 1.544308 -0.683876 217 215 202
-0.372175 1.543017 -0.682733 219 217 204
-0.364697 1.54685 -0.683504 220 218 205
-0.357515 1.559603 -0.687597 221 219 206
-0.350104 1.568931 -0.690405 222 220 208
-0.342338 1.568316 -0.689507 224 222 210
-0.334929 1.583437 -0.694455 224 222 210
-0.327172 1.586737 -0.695004 224 222 210
-0.319706 1.616184 -0.705242 224 221 210
-0.311785 1.622793 -0.707 224 221 209
-0.303807 1.632138 -0.709764 224 220 209
-0.295731 1.644232 -0.713535 223 219 208
-0.287558 1.65325 -0.71616 224 219 208
-0.279307 1.661254 -0.718404 224 219 208
-0.270978 1.669129 -0.720593 224 218 208
-0.262466 1.681634 -0.724478 223 218 208
-0.253935 1.690156 -0.726888 224 217 207
-0.24532 1.698487 -0.72922 223 217 207
-0.236386 1.713156 -0.733867 223 216 206
-0.227645 1.719513 -0.735458 222 215 205
-0.218907 1.72431 -0.736473 221 214 204
-0.210186 1.727665 -0.736956 221 214 204
-0.201149 1.735846 -0.739195 220 213 203
-0.19133 1.7553 -0.745533 219 212 202
-0.181836 1.766749 -0.748939 218 211 201
-0.172057 1.780425 -0.753144 217 210 200
-0.162563 1.788396 -0.755265 216 209 201
-0.153087 1.794966 -0.756869 215 207 200
-0.142821 1.809756 -0.761442 213 206 198
-0.133386 1.813609 -0.762045 211 202 195
-0.121567 1.841687 -0.771394 208 200 191
-0.111221 1.852201 -0.774379 204 196 186
-0.100546 1.864637 -0.778045 199 191 181
-0.090158 1.873167 -0.780293 193 186 175
-0.079971 1.879021 -0.781568 190 183 172
-0.069586 1.885832 -0.78318 187 181 169
-0.058063 1.900916 -0.78775 186 180 168
-0.047477 1.907505 -0.789261 185 178 167
-0.037385 1.909799 -0.789228 182 176 164
-0.026352 1.918397 -0.791442 175 168 156
-0.015202 1.927011 -0.793652 159 148 134
-0.004617 1.931156 -0.794259 138 122 107
0.006127 1.935876 -0.795064 123 97 79
0.016668 1.938889 -0.795256 117 87 69
0.026837 1.939354 -0.794538 114 80 63
0.037717 1.943781 -0.795223 113 78 59
0.048177 1.945459 -0.794927 113 76 56
0.060839 1.958981 -0.798818 117 76 58
0.071781 1.962517 -0.799166 114 74 54
0.084219 1.973527 -0.802147 115 74 54
0.096346 1.98233 -0.804339 115 73 53
0.106594 1.981427 -0.803108 114 72 53
0.1169 1.980832 -0.801984 110 70 50
0.126704 1.977931 -0.800053 109 69 52
0.137779 1.980991 -0.800214 100 63 45
0.150584 1.991673 -0.80304 104 63 45
0.160039 1.98738 -0.800625 104 61 43
0.170605 1.988123 -0.799974 104 61 43
0.180533 1.986325 -0.79844 106 64 47
0.190686 1.985701 -0.79732 113 71 54
0.202318 1.99121 -0.798338 113 71 52
0.212748 1.992041 -0.797733 113 68 49
0.222066 1.988841 -0.795735 112 67 48
0.230273 1.981892 -0.792449 109 64 45
0.239733 1.980156 -0.790981 108 63 42
0.248534 1.976455 -0.788845 107 62 41
0.257236 1.972914 -0.786777 107 62 41
0.262555 1.958055 -0.780822 109 63 43
-0.379387 1.543977 -0.69193 217 215 202
-0.371898 1.547718 -0.692679 218 216 203
-0.364451 1.553184 -0.694078 221 219 206
-0.357014 1.560247 -0.696077 221 219 206
-0.34954 1.568203 -0.698407 221 219 207
-0.341874 1.571689 -0.699045 223 221 209
-0.33454 1.591859 -0.705966 223 221 209
-0.326742 1.596028 -0.706848 224 221 209
-0.319026 1.610279 -0.711517 223 220 209
-0.31113 1.618581 -0.71394 223 220 208
-0.303159 1.629289 -0.717259 222 218 207
-0.295086 1.638634 -0.720057 222 218 207
-0.286908 1.649644 -0.723471 222 217 207
-0.278695 1.654727 -0.72466 222 217 207
-0.270312 1.666542 -0.728358 222 216 206
-0.261857 1.676242 -0.731256 221 216 205
-0.253159 1.691213 -0.736109 222 215 205
-0.24463 1.696195 -0.737233 221 215 205
-0.235767 1.708681 -0.74114 221 214 204
-0.226827 1.719905 -0.744568 220 213 203
-0.218443 1.716758 -0.742657 219 212 202
-0.209579 1.723287 -0.744331 218 211 201
-0.200324 1.735385 -0.748059 218 211 201
-0.190615 1.752696 -0.753701 218 211 201
-0.181326 1.760979 -0.755996 216 209 199
-0.171309 1.778068 -0.761528 215 208 198
-0.161682 1.787674 -0.764289 215 208 199
-0.152129 1.795002 -0.766203 212 205 197
-0.141521 1.813473 -0.772202 212 203 196
-0.130952 1.829315 -0.777218 209 200 191
-0.120967 1.837273 -0.779331 204 196 187
-0.110586 1.848153 -0.782504 199 191 181
-0.099547 1.863972 -0.787471 192 184 173
-0.089476 1.869501 -0.788666 188 181 170
-0.0797 1.871835 -0.788688 186 179 168
-0.068964 1.881659 -0.791434 183 177 165
-0.058231 1.89048 -0.793805 176 171 157
-0.047542 1.898102 -0.79573 163 155 140
-0.037224 1.902258 -0.796388 144 131 116
-0.027181 1.904008 -0.796169 132 110 94
-0.015779 1.914682 -0.799176 123 93 76
-0.004724 1.922197 -0.801029 117 81 63
0.003177 1.909047 -0.795411 119 83 63
0.012349 1.904389 -0.792865 122 83 63
0.020397 1.893183 -0.787963 123 82 62
0.032818 1.907771 -0.792348 121 81 57
0.045346 1.921992 -0.796586 117 77 55
0.056616 1.92845 -0.798024 115 75 54
0.068041 1.935281 -0.799588 116 75 55
0.079178 1.940183 -0.800454 116 76 56
0.093526 1.96089 -0.806964 120 80 62
0.10617 1.972165 -0.810087 142 115 98
0.114964 1.964507 -0.806449 174 159 145
0.126255 1.968846 -0.80709 77 70 57
0.137427 1.972469 -0.807473 88 76 63
0.147648 1.971769 -0.806319 159 141 126
0.158574 1.97424 -0.806291 139 115 96
0.168784 1.973684 -0.805191 111 73 56
0.178479 1.971162 -0.803398 108 68 51
0.190018 1.976413 -0.804358 113 71 54
0.200942 1.979208 -0.804451 114 72 53
0.211796 1.981857 -0.804496 114 69 50
0.219939 1.974309 -0.800954 113 68 48
0.228997 1.970782 -0.798839 111 66 46
0.238565 1.969593 -0.797556 109 64 43
0.24871 1.970891 -0.797154 108 63 42
0.257444 1.967518 -0.795124 109 62 42
0.267423 1.969017 -0.794812 109 62 42
-0.378634 1.538742 -0.698122 216 214 201
-0.37147 1.549295 -0.701502 219 216 203
-0.363946 1.553437 -0.702413 220 217 204
-0.356611 1.563801 -0.705706 220 218 206
-0.349007 1.568637 -0.706875 221 219 207
-0.341443 1.576611 -0.709239 222 220 208
-0.33396 1.591883 -0.714385 223 220 208
-0.326288 1.604622 -0.718552 223 220 208
-0.318378 1.607345 -0.718891 222 219 208
-0.310488 1.616925 -0.721838 222 218 207
-0.30252 1.634735 -0.727907 221 217 206
-0.294409 1.642373 -0.730097 221 216 205
-0.286247 1.646856 -0.731084 221 216 205
-0.278012 1.653485 -0.73288 220 215 205
-0.2696 1.666246 -0.736991 220 214 204
-0.261183 1.673557 -0.739031 219 214 203
-0.252679 1.681242 -0.741206 219 213 203
-0.243667 1.702012 -0.74831 219 212 202
-0.235116 1.704897 -0.748657 218 212 202
-0.226644 1.705115 -0.747997 218 211 201
-0.217511 1.719021 -0.752482 218 211 201
-0.20868 1.724365 -0.753739 217 210 200
-0.198808 1.746769 -0.76139 215 208 199
-0.189784 1.751806 -0.762515 214 207 198
-0.180596 1.75837 -0.764206 214 207 197
-0.170384 1.778014 -0.770779 214 207 197
-0.160688 1.788256 -0.773824 212 205 195
-0.15106 1.796232 -0.776014 211 204 196
-0.139093 1.829934 -0.787778 210 201 192
-0.130263 1.825752 -0.785417 204 197 187
-0.120723 1.829109 -0.78586 199 191 181
-0.11012 1.84234 -0.789964 190 183 173
-0.099258 1.856543 -0.794414 186 180 168
-0.089391 1.86042 -0.795027 180 174 161
-0.079508 1.863908 -0.795492 167 161 146
-0.06934 1.869233 -0.796629 145 135 120
-0.058083 1.882487 -0.800686 125 101 85
-0.047892 1.886498 -0.801323 121 87 70
-0.037678 1.890193 -0.801838 122 83 65
-0.027036 1.896446 -0.803289 122 82 62
-0.021918 1.864749 -0.790798 123 82 63
-0.015406 1.84413 -0.782396 122 82 63
-0.006475 1.83998 -0.780042 119 79 58
0.006908 1.863181 -0.787696 121 80 58
0.019653 1.881035 -0.793373 122 81 59
0.029904 1.883354 -0.793364 123 81 58
0.042038 1.895929 -0.797088 123 81 58
0.054231 1.908012 -0.800621 121 80 58
0.064119 1.907177 -0.799445 118 79 58
0.074141 1.907004 -0.798509 119 80 61
0.087371 1.922822 -0.803371 169 155 136
0.099557 1.932711 -0.80607 60 52 41
0.112653 1.946414 -0.810139 152 144 134
0.124963 1.955818 -0.812643 51 43 33
0.135229 1.955559 -0.811652 51 44 35
0.14632 1.959013 -0.812 49 43 31
0.15691 1.96024 -0.811545 48 42 26
0.167195 1.960234 -0.810647 72 65 48
0.17762 1.960958 -0.810014 174 157 140
0.186728 1.956491 -0.807522 127 96 78
0.199722 1.967825 -0.810696 116 78 61
0.208601 1.962951 -0.808067 115 72 54
0.218446 1.962216 -0.806927 115 70 50
0.227701 1.959605 -0.805124 113 68 47
0.237505 1.959431 -0.804197 110 64 44
0.247984 1.962056 -0.804275 110 63 43
0.256589 1.958332 -0.802102 109 62 42
0.258281 1.93107 -0.791584 109 62 42
-0.378122 1.538319 -0.706164 215 213 200
-0.370715 1.54386 -0.707639 217 215 202
-0.363312 1.550677 -0.709607 220 216 204
-0.355785 1.555735 -0.710886 220 216 205
-0.348419 1.567457 -0.714748 222 218 207
-0.340991 1.581107 -0.719348 222 219 207
-0.333357 1.591125 -0.722531 222 219 207
-0.32568 1.604428 -0.726975 222 218 207
-0.317801 1.611191 -0.728882 221 218 207
-0.309889 1.622907 -0.732696 221 217 206
-0.30187 1.640846 -0.738898 219 215 204
-0.293741 1.640345 -0.737985 219 214 203
-0.285572 1.645019 -0.739062 219 214 203
-0.27734 1.650866 -0.740587 218 213 203
-0.269061 1.655986 -0.741828 218 212 202
-0.260503 1.670782 -0.746774 217 211 201
-0.251924 1.681021 -0.749962 217 211 201
-0.242897 1.70155 -0.757076 216 210 200
-0.234401 1.702642 -0.756748 216 210 200
-0.225417 1.714677 -0.760594 216 209 199
-0.21649 1.722864 -0.762963 215 208 198
-0.207344 1.733487 -0.766251 214 207 197
-0.19823 1.741556 -0.768559 213 206 196
-0.189105 1.748334 -0.77037 213 206 197
-0.17995 1.754392 -0.7719 213 206 197
-0.169536 1.776728 -0.779593 212 205 196
-0.16063 1.776622 -0.778772 212 204 195
-0.152491 1.76705 -0.77437 212 203 196
-0.140391 1.803555 -0.787378 207 198 189
-0.130337 1.813843 -0.790462 197 189 179
-0.120112 1.824637 -0.793728 186 180 168
-0.110929 1.824043 -0.792697 179 172 160
-0.100886 1.831287 -0.794611 156 147 132
-0.089958 1.845526 -0.799145 135 118 102
-0.079445 1.854831 -0.801814 111 78 61
-0.069665 1.857214 -0.80188 105 68 52
-0.059599 1.861461 -0.802641 109 70 52
-0.048701 1.871433 -0.805535 110 71 52
-0.03851 1.875377 -0.80617 112 73 54
-0.02951 1.870568 -0.803535 118 78 59
-0.021678 1.858052 -0.798034 122 81 61
-0.020839 1.80075 -0.775887 122 81 61
-0.0128 1.792311 -0.771939 123 81 62
-0.001439 1.804496 -0.775649 123 82 62
0.017344 1.859633 -0.795262 122 80 58
0.028393 1.867047 -0.797161 121 79 57
0.038545 1.86893 -0.797008 121 79 57
0.050367 1.879629 -0.800107 122 80 59
0.059043 1.873112 -0.796846 120 80 58
0.067583 1.866186 -0.793439 157 126 105
0.077935 1.86859 -0.79347 179 165 144
0.094872 1.902802 -0.805183 62 54 43
0.109453 1.924145 -0.812143 161 152 143
0.113295 1.894861 -0.80053 182 173 164
0.129949 1.924773 -0.810611 54 46 37
0.142877 1.936941 -0.814178 55 48 37
0.154349 1.94238 -0.815278 52 44 32
0.165444 1.946109 -0.815752 157 148 136
0.175664 1.946216 -0.814905 98 90 78
0.185167 1.943597 -0.813069 47 39 27
0.194681 1.941337 -0.811369 74 63 53
0.206596 1.948702 -0.813167 184 164 145
0.216793 1.949525 -0.812592 121 78 59
0.226938 1.950416 -0.812046 115 69 49
0.237031 1.951414 -0.811544 113 66 46
0.2472 1.953007 -0.811263 110 63 43
0.255497 1.948315 -0.80872 110 63 43
0.261504 1.936238 -0.803529 109 62 42
-0.385044 1.533554 -0.713203 213 211 198
-0.377803 1.541813 -0.715777 215 213 200
-0.370325 1.546507 -0.716938 217 213 201
-0.362653 1.547362 -0.716582 219 215 203
-0.35532 1.557875 -0.72003 219 215 204
-0.348001 1.572069 -0.724917 221 217 206
-0.340441 1.582143 -0.728174 221 218 206
-0.332765 1.591227 -0.731035 221 218 207
-0.324975 1.598518 -0.733185 221 217 206
-0.317204 1.614108 -0.73858 220 216 205
-0.309234 1.621503 -0.740756 220 215 204
-0.301194 1.632255 -0.744238 218 213 202
-0.293068 1.638243 -0.745851 218 212 202
-0.284887 1.643608 -0.747217 217 212 201
-0.27663 1.650555 -0.749196 217 211 200
-0.268101 1.668186 -0.755324 215 209 199
-0.259657 1.674773 -0.757146 214 208 198
-0.251087 1.683347 -0.759734 214 207 197
-0.242253 1.697072 -0.764312 213 207 197
-0.233515 1.704625 -0.766487 213 207 197
-0.224545 1.715632 -0.769993 212 206 196
-0.215982 1.715808 -0.769304 212 205 196
-0.207545 1.713433 -0.76763 210 203 193
-0.19794 1.731284 -0.773755 210 203 194
-0.188681 1.740695 -0.776615 211 204 194
-0.17969 1.744625 -0.777358 210 203 195
-0.170568 1.749635 -0.778512 210 203 195
-0.16102 1.759249 -0.781428 209 201 192
-0.151419 1.768168 -0.784069 206 198 190
-0.140527 1.790506 -0.791839 191 183 172
-0.130535 1.800601 -0.794906 164 155 140
-0.121469 1.800059 -0.793901 150 137 121
-0.111549 1.807634 -0.795993 134 111 94
-0.102472 1.806538 -0.794772 123 88 69
-0.091538 1.821715 -0.799746 114 74 55
-0.080755 1.834121 -0.803652 103 63 45
-0.07037 1.842105 -0.805866 95 53 35
-0.060539 1.844968 -0.80613 89 49 32
-0.049997 1.852738 -0.808249 90 48 30
-0.039394 1.860196 -0.810242 110 68 50
-0.029746 1.860326 -0.809456 119 77 58
-0.020902 1.854885 -0.806566 119 78 58
-0.01182 1.851187 -0.804337 123 81 62
-0.006295 1.825296 -0.793751 124 81 62
-3e-06 1.805541 -0.785494 123 81 62
0.013911 1.776765 -0.773059 121 80 58
0.031808 1.82406 -0.789981 122 80 58
0.047402 1.856195 -0.801183 122 80 58
0.056916 1.854648 -0.79976 121 79 57
0.064853 1.845077 -0.79534 119 77 56
0.074459 1.844238 -0.794185 108 69 50
0.083209 1.839266 -0.79149 117 87 69
0.093575 1.842147 -0.791722 168 155 138
0.107817 1.862736 -0.798532 121 112 101
0.128246 1.910181 -0.815294 76 69 58
0.140658 1.920304 -0.818175 115 108 96
0.152405 1.927206 -0.819855 189 179 168
0.162736 1.927978 -0.819262 171 161 150
0.173554 1.93086 -0.81945 62 52 41
0.18316 1.92892 -0.817858 112 103 91
0.193363 1.929615 -0.817241 181 170 157
0.203403 1.929891 -0.816473 179 164 147
0.214121 1.932987 -0.816745 117 79 60
0.225046 1.937031 -0.817367 114 69 49
0.235735 1.940394 -0.81774 113 66 46
0.245969 1.942361 -0.817605 112 65 45
0.255292 1.941432 -0.816415 110 63 43
0.264892 1.941904 -0.815744 110 63 43
-0.38471 1.536302 -0.722549 213 210 198
-0.377428 1.54435 -0.725073 216 213 201
-0.370185 1.554854 -0.728574 216 212 200
-0.362956 1.56815 -0.733182 218 215 202
-0.355245 1.571298 -0.733729 218 214 203
-0.347387 1.570457 -0.732683 220 216 205
-0.339827 1.580914 -0.736139 221 217 206
-0.332148 1.59036 -0.739184 221 217 206
-0.324302 1.594874 -0.740262 220 216 205
-0.316498 1.607374 -0.744508 219 215 204
-0.308571 1.619909 -0.748756 218 213 202
-0.300521 1.629521 -0.751837 217 211 200
-0.292398 1.634013 -0.752885 215 210 199
-0.284164 1.645517 -0.7567 214 209 198
-0.275805 1.657742 -0.760791 212 207 197
-0.267517 1.659846 -0.760881 211 206 196
-0.258876 1.675526 -0.766316 209 205 195
-0.250435 1.678877 -0.766888 210 205 195
-0.241687 1.690135 -0.770565 209 204 194
-0.232903 1.699266 -0.773397 209 204 194
-0.22445 1.698657 -0.772403 209 204 194
-0.216011 1.697721 -0.771282 208 203 193
-0.206694 1.71307 -0.776532 207 200 191
-0.197502 1.723519 -0.779854 207 200 190
-0.188358 1.731427 -0.782176 207 200 190
-0.179465 1.734344 -0.782545 204 200 189
-0.170465 1.738135 -0.783251 199 194 185
-0.160473 1.753856 -0.788595 181 176 163
-0.151506 1.755273 -0.788366 159 150 135
-0.142106 1.761225 -0.789896 140 125 109
-0.131622 1.777897 -0.795577 127 96 77
-0.122306 1.78087 -0.795938 125 88 69
-0.113042 1.782867 -0.795918 123 84 64
-0.102621 1.795106 -0.799852 116 74 54
-0.092133 1.806646 -0.803505 104 60 41
-0.081689 1.816657 -0.806558 99 54 35
-0.071654 1.822357 -0.807942 95 50 32
-0.061595 1.827617 -0.80915 93 49 30
-0.052079 1.828258 -0.808579 95 50 32
-0.042491 1.829188 -0.808117 103 59 41
-0.030705 1.845052 -0.813376 115 73 53
-0.020253 1.850772 -0.814737 119 78 58
-0.011055 1.84786 -0.812791 122 79 60
-0.001751 1.845647 -0.811114 123 80 61
0.008125 1.846878 -0.810751 123 81 60
0.01906 1.854103 -0.81267 123 79 58
0.021318 1.811478 -0.795612 122 79 58
0.044962 1.784969 -0.783095 123 81 59
0.055402 1.789915 -0.784156 122 80 58
0.085637 1.843989 -0.802956 119 72 55
0.100744 1.868939 -0.811531 111 68 55
0.114735 1.887577 -0.817704 117 83 69
0.128381 1.903825 -0.82296 180 169 152
0.140891 1.914414 -0.826074 93 85 73
0.150766 1.91335 -0.824802 61 51 40
0.160667 1.912554 -0.823633 185 175 160
0.171411 1.915387 -0.823825 186 174 160
0.181441 1.915416 -0.822967 156 138 124
0.19177 1.916819 -0.822625 107 73 62
0.201636 1.916617 -0.821685 112 71 58
0.210519 1.912984 -0.819468 116 71 53
0.22057 1.914102 -0.819028 116 70 51
0.232641 1.922845 -0.821428 114 67 47
0.243919 1.928801 -0.822788 112 64 44
0.253924 1.930459 -0.822555 112 64 44
0.267189 1.943719 -0.826625 111 64 44
-0.383815 1.528922 -0.727839 212 209 197
-0.376871 1.543337 -0.732985 216 212 200
-0.369216 1.544914 -0.732915 217 213 201
-0.361825 1.553329 -0.735614 217 213 201
-0.354442 1.56425 -0.739319 218 214 203
-0.346739 1.567874 -0.740069 219 215 204
-0.339251 1.581416 -0.744819 220 216 205
-0.331584 1.592505 -0.748568 220 216 205
-0.323701 1.596281 -0.749365 219 215 204
-0.315818 1.603492 -0.751541 218 214 203
-0.307947 1.626937 -0.760234 216 211 200
-0.299842 1.627 -0.759524 213 208 197
-0.29168 1.638682 -0.763472 210 206 196
-0.283539 1.636421 -0.761827 210 205 195
-0.275213 1.648043 -0.765739 208 204 194
-0.266679 1.664315 -0.771499 208 203 193
-0.258252 1.669521 -0.772828 207 203 193
-0.250062 1.664843 -0.770214 207 203 193
-0.241058 1.684931 -0.777467 207 203 193
-0.232513 1.688161 -0.777997 207 202 192
-0.224108 1.687374 -0.776928 206 201 191
-0.215462 1.691452 -0.777793 206 201 192
-0.206338 1.703407 -0.781776 206 199 191
-0.196984 1.717043 -0.786415 200 194 182
-0.188103 1.721053 -0.787234 188 184 170
-0.179022 1.727182 -0.788888 165 159 146
-0.170062 1.730675 -0.789496 146 136 121
-0.161761 1.72525 -0.786586 140 125 107
-0.151292 1.745973 -0.793977 124 95 77
-0.142001 1.751006 -0.795178 124 87 70
-0.132081 1.761966 -0.798704 121 84 63
-0.122311 1.770135 -0.801124 122 83 62
-0.112742 1.775393 -0.802396 122 80 59
-0.103013 1.781435 -0.803969 116 71 51
-0.093133 1.788083 -0.805774 102 57 37
-0.083102 1.795229 -0.807767 100 55 34
-0.071996 1.810221 -0.812815 96 51 32
-0.061784 1.816971 -0.814637 99 53 35
-0.052009 1.819794 -0.814923 102 56 37
-0.041593 1.826809 -0.816836 108 62 43
-0.031261 1.832572 -0.818256 115 73 52
-0.022163 1.829583 -0.816273 119 77 57
-0.011902 1.8341 -0.817202 121 78 59
-0.001027 1.841983 -0.819428 122 79 60
0.009253 1.84565 -0.820017 125 81 62
0.018658 1.843858 -0.818493 126 80 60
0.029564 1.85054 -0.820238 125 80 60
0.038922 1.848214 -0.818505 125 80 59
0.048316 1.846118 -0.816862 124 79 58
0.046421 1.785412 -0.79269 124 79 58
0.059636 1.804268 -0.79912 124 80 59
0.0823 1.868627 -0.822984 126 79 60
0.0934 1.874184 -0.824263 125 78 59
0.105208 1.882777 -0.826699 124 77 58
0.116 1.886323 -0.827198 120 72 54
0.1281 1.895568 -0.829869 112 70 53
0.139229 1.900217 -0.830779 120 85 69
0.149906 1.902821 -0.830907 187 170 155
0.160409 1.9047 -0.830757 123 94 77
0.170492 1.904931 -0.82998 118 80 64
0.179604 1.90145 -0.827795 120 75 61
0.189228 1.900316 -0.826504 118 73 57
0.200828 1.907041 -0.828192 118 71 55
0.210648 1.907072 -0.827345 117 70 52
0.219754 1.904764 -0.825617 115 68 49
0.230914 1.910305 -0.826856 113 66 46
0.241003 1.912189 -0.826715 113 66 46
0.250547 1.912478 -0.825977 113 65 45
0.263021 1.923238 -0.829179 111 64 44
-0.383233 1.527285 -0.735444 212 208 196
-0.375983 1.535723 -0.738202 215 211 199
-0.368628 1.543506 -0.740684 215 211 199
-0.361271 1.553068 -0.743891 217 213 201
-0.353856 1.563513 -0.747452 218 214 204
-0.346191 1.568838 -0.748909 217 213 202
-0.338867 1.590054 -0.756861 219 215 204
-0.331013 1.594681 -0.758019 219 215 204
-0.323109 1.598837 -0.758982 218 214 203
-0.315159 1.602193 -0.759617 217 212 202
-0.307195 1.609482 -0.761851 214 209 198
-0.299155 1.63263 -0.770529 209 205 194
-0.291013 1.631489 -0.769321 208 204 194
-0.282829 1.635542 -0.770223 207 203 193
-0.274613 1.63894 -0.770856 207 203 193
-0.265949 1.662778 -0.779763 206 202 192
-0.257857 1.654253 -0.775563 206 202 192
-0.249536 1.655995 -0.775518 205 201 191
-0.241113 1.660023 -0.776395 205 200 190
-0.231981 1.680627 -0.783951 201 198 187
-0.22375 1.67648 -0.781524 200 196 185
-0.215318 1.676995 -0.780976 193 189 178
-0.206272 1.688432 -0.784816 173 165 153
-0.197345 1.695822 -0.787023 157 145 129
-0.187667 1.71345 -0.793327 138 119 100
-0.178786 1.716991 -0.793976 124 96 79
-0.170455 1.712529 -0.791423 123 91 73
-0.16129 1.718888 -0.793195 125 88 69
-0.152557 1.719219 -0.792558 124 87 68
-0.141754 1.742328 -0.801 124 86 65
-0.131643 1.755533 -0.805478 122 83 62
-0.122372 1.758812 -0.805997 122 81 61
-0.113266 1.760025 -0.805692 121 79 59
-0.103378 1.768036 -0.808084 118 73 53
-0.093679 1.773509 -0.809463 107 62 41
-0.083614 1.781377 -0.811784 102 57 36
-0.073007 1.79274 -0.815482 97 52 33
-0.06217 1.804795 -0.819441 101 54 35
-0.051534 1.814275 -0.822374 104 57 37
-0.041827 1.8163 -0.822359 110 64 43
-0.032311 1.816702 -0.821704 118 73 52
-0.02296 1.815824 -0.820543 120 76 57
-0.013431 1.815984 -0.819791 120 77 58
-0.00228 1.826007 -0.822908 121 78 59
0.008977 1.835906 -0.825966 122 79 60
0.019143 1.83873 -0.826246 124 80 61
0.029011 1.839582 -0.82575 126 81 62
0.03999 1.846356 -0.827567 125 80 59
0.049815 1.846517 -0.826796 125 80 59
0.060338 1.850191 -0.827393 124 79 58
0.074554 1.872206 -0.835125 124 77 57
0.085094 1.874997 -0.835363 125 78 58
0.09506 1.874871 -0.834465 127 80 60
0.104484 1.872213 -0.832583 125 78 58
0.114916 1.874288 -0.832538 124 77 56
0.125868 1.878605 -0.833358 125 77 56
0.136595 1.881812 -0.833744 123 75 56
0.147749 1.886773 -0.834805 123 77 58
0.160006 1.896215 -0.83759 127 79 60
0.169067 1.892411 -0.835265 127 79 58
0.178205 1.889247 -0.833189 127 79 58
0.187791 1.888164 -0.831918 127 79 60
0.197572 1.888101 -0.83104 124 76 58
0.209467 1.896226 -0.833303 120 72 54
0.219073 1.895922 -0.832333 117 69 50
0.229186 1.897784 -0.832194 114 67 47
0.237391 1.893159 -0.829579 113 66 45
0.247879 1.89703 -0.830212 111 64 43
0.26263 1.91579 -0.836521 113 65 45
-0.390176 1.523113 -0.742725 211 207 195
-0.38283 1.529051 -0.744481 211 207 195
-0.375447 1.535292 -0.746359 213 209 197
-0.36802 1.541787 -0.748339 214 210 198
-0.360713 1.552823 -0.752202 217 212 200
-0.353232 1.561852 -0.755224 218 212 201
-0.345649 1.570225 -0.757966 219 213 203
-0.338033 1.580559 -0.761515 218 214 203
-0.33041 1.595667 -0.767031 218 213 203
-0.322456 1.597771 -0.767161 217 213 202
-0.314462 1.597528 -0.76632 215 211 200
-0.306491 1.601637 -0.767277 211 206 196
-0.298477 1.607957 -0.769141 208 204 194
-0.290347 1.623752 -0.774901 207 203 193
-0.282181 1.628114 -0.775949 206 202 192
-0.273973 1.632276 -0.776911 206 202 192
-0.265793 1.63296 -0.776444 205 201 191
-0.25735 1.643555 -0.780039 203 200 189
-0.248794 1.654204 -0.783648 200 197 185
-0.240343 1.65878 -0.784766 194 192 179
-0.231725 1.66621 -0.787046 180 177 163
-0.223782 1.656987 -0.782527 166 161 145
-0.215028 1.665504 -0.785247 150 138 121
-0.206664 1.665285 -0.784404 140 123 106
-0.198396 1.663343 -0.782862 124 99 81
-0.190149 1.661216 -0.781247 120 91 72
-0.179875 1.68797 -0.791351 123 86 66
-0.171702 1.683168 -0.788645 126 87 68
-0.162705 1.689013 -0.790254 124 86 65
-0.152072 1.713134 -0.799247 124 86 65
-0.142802 1.719324 -0.800977 125 87 66
-0.135052 1.708789 -0.795955 126 87 66
-0.126088 1.711189 -0.796156 125 84 64
-0.115665 1.726973 -0.801742 122 81 61
-0.105907 1.735122 -0.804245 119 76 55
-0.094534 1.756304 -0.811975 107 62 42
-0.08415 1.767341 -0.815616 106 59 39
-0.074412 1.77219 -0.816768 102 55 37
-0.062955 1.789564 -0.822929 103 56 37
-0.053022 1.794293 -0.824019 106 59 39
-0.043205 1.79769 -0.824572 111 64 44
-0.03441 1.793712 -0.822179 116 70 49
-0.024598 1.796537 -0.8225 120 75 56
-0.01358 1.806686 -0.825735 120 77 58
-0.002973 1.813508 -0.827637 121 78 59
0.008012 1.822017 -0.830202 122 79 60
0.017894 1.823505 -0.829974 124 79 60
0.028498 1.82883 -0.831265 125 80 60
0.039543 1.836143 -0.833336 125 80 59
0.050208 1.840943 -0.834407 126 79 59
0.061852 1.85044 -0.837328 127 80 60
0.074659 1.865207 -0.842319 125 78 58
0.085756 1.870802 -0.843682 125 78 58
0.094901 1.866789 -0.841257 124 77 57
0.103546 1.860642 -0.837996 124 77 57
0.113945 1.862754 -0.837983 124 77 57
0.124313 1.864673 -0.837892 125 77 56
0.134911 1.867559 -0.838178 125 77 55
0.144683 1.866912 -0.837078 126 78 56
0.155877 1.872291 -0.838334 128 80 58
0.167311 1.878558 -0.839933 125 77 55
0.177566 1.880068 -0.83967 126 78 56
0.186536 1.876725 -0.837516 127 79 57
0.195348 1.873149 -0.835275 128 78 57
0.204997 1.873098 -0.834409 124 75 54
0.215893 1.877915 -0.835433 121 73 52
0.225689 1.878916 -0.834975 118 70 48
0.23612 1.882475 -0.835509 115 67 45
0.24603 1.884479 -0.835441 114 67 44
0.263067 1.911173 -0.844914 112 64 43
-0.389517 1.520208 -0.749812 211 205 193
-0.382191 1.52654 -0.751759 211 207 195
-0.374786 1.532403 -0.753505 211 207 195
-0.367343 1.53857 -0.755374 215 210 198
-0.359997 1.548673 -0.758897 216 211 199
-0.352449 1.555591 -0.761073 218 212 200
-0.344657 1.556202 -0.760594 218 211 201
-0.337176 1.57005 -0.765672 217 213 202
-0.329597 1.585809 -0.77154 217 213 202
-0.321705 1.59 -0.772551 216 211 200
-0.313725 1.588564 -0.771206 212 207 197
-0.305779 1.592049 -0.771921 208 204 194
-0.297795 1.598783 -0.77399 207 203 193
-0.289764 1.602248 -0.774692 206 202 192
-0.28152 1.621726 -0.78206 205 201 191
-0.273468 1.617097 -0.779384 204 200 189
-0.265294 1.620351 -0.77999 199 196 183
-0.256993 1.627088 -0.78204 189 186 172
-0.24868 1.631911 -0.783292 166 162 146
-0.239822 1.65037 -0.790187 142 132 114
-0.231552 1.649858 -0.78922 129 105 86
-0.223406 1.646595 -0.787118 125 96 77
-0.214891 1.651027 -0.788196 123 88 69
-0.206565 1.651147 -0.787494 119 83 64
-0.199055 1.637688 -0.7812 118 83 64
-0.19043 1.643013 -0.782647 120 84 65
-0.180983 1.658978 -0.788464 121 85 65
-0.171321 1.675487 -0.79449 124 86 67
-0.164256 1.657745 -0.786457 124 86 67
-0.152211 1.699723 -0.802904 127 89 70
-0.143113 1.704547 -0.804111 124 86 67
-0.135313 1.695199 -0.799523 124 85 66
-0.126478 1.696826 -0.799424 125 85 65
-0.117134 1.702902 -0.801139 124 84 65
-0.105574 1.728106 -0.810642 122 81 61
-0.09564 1.736992 -0.813482 115 71 51
-0.085683 1.745135 -0.816013 111 64 44
-0.07558 1.753595 -0.818666 106 59 41
-0.066228 1.755526 -0.818663 105 58 38
-0.053602 1.781002 -0.828198 106 59 39
-0.045722 1.771131 -0.823405 110 63 44
-0.036478 1.77103 -0.822571 116 69 50
-0.026369 1.776438 -0.823961 120 75 56
-0.014906 1.789907 -0.828598 120 77 58
-0.003703 1.800768 -0.832172 122 79 60
0.006686 1.805993 -0.833468 123 78 59
0.017068 1.810727 -0.834561 125 80 61
0.02751 1.815404 -0.835627 125 80 60
0.038662 1.82355 -0.838079 124 79 58
0.049262 1.828245 -0.839141 125 80 60
0.059244 1.829428 -0.838793 125 78 58
0.073384 1.851258 -0.846697 126 79 59
0.084892 1.859102 -0.848996 126 79 59
0.091793 1.844675 -0.842403 126 78 58
0.102978 1.850771 -0.844 124 77 57
0.113557 1.85385 -0.844389 124 77 57
0.123504 1.854041 -0.843627 124 77 57
0.132704 1.851065 -0.841607 124 76 56
0.143181 1.853692 -0.841811 126 78 56
0.1542 1.858561 -0.842901 126 78 56
0.165417 1.864167 -0.844278 126 78 56
0.176008 1.867239 -0.844647 127 79 57
0.185168 1.864855 -0.84286 126 78 56
0.193893 1.861148 -0.840552 127 76 55
0.20368 1.861798 -0.839965 125 74 53
0.212711 1.859959 -0.838398 124 74 53
0.225171 1.870805 -0.84182 121 73 51
0.234783 1.871577 -0.841279 119 71 49
0.24471 1.873793 -0.841303 118 69 48
0.249647 1.859328 -0.834794 116 68 46
-0.388584 1.512647 -0.754905 209 203 191
-0.381125 1.516082 -0.755641 209 205 193
-0.373729 1.521377 -0.757172 213 207 195
-0.366418 1.5297 -0.759992 213 208 196
-0.358973 1.53652 -0.762165 213 208 196
-0.351272 1.53755 -0.761868 217 211 199
-0.343538 1.537569 -0.761141 218 211 201
-0.336238 1.556035 -0.768257 218 212 202
-0.328597 1.565738 -0.771638 217 212 201
-0.320786 1.569672 -0.772564 214 210 199
-0.31297 1.577529 -0.775151 208 204 194
-0.30507 1.583211 -0.776812 206 202 192
-0.297117 1.587 -0.777669 205 202 191
-0.289132 1.589885 -0.778143 203 200 189
-0.281138 1.590941 -0.777845 198 195 183
-0.27307 1.595777 -0.77914 184 181 166
-0.264965 1.59997 -0.780162 155 150 133
-0.256659 1.610001 -0.783636 139 129 112
-0.248461 1.613312 -0.78428 120 94 75
-0.24042 1.611253 -0.782671 120 88 68
-0.232478 1.607162 -0.780214 120 86 65
-0.22501 1.593581 -0.77379 121 86 65
-0.21582 1.615939 -0.782406 120 84 63
-0.206831 1.630612 -0.787794 123 85 65
-0.198868 1.626052 -0.785145 122 85 66
-0.191159 1.618195 -0.781129 120 83 64
-0.182826 1.619986 -0.781137 120 83 64
-0.173993 1.627909 -0.783695 120 83 64
-0.164489 1.642897 -0.789182 123 86 68
-0.15518 1.65371 -0.792924 125 87 69
-0.14408 1.682663 -0.804176 125 86 66
-0.134927 1.688318 -0.805757 125 85 66
-0.126682 1.684319 -0.803341 125 84 65
-0.117064 1.693352 -0.806314 125 83 65
-0.107326 1.702454 -0.809308 124 82 64
-0.096536 1.719544 -0.815588 121 79 60
-0.086745 1.726877 -0.817835 116 73 54
-0.07767 1.727828 -0.817451 112 66 47
-0.068909 1.726168 -0.815994 109 62 44
-0.05978 1.72713 -0.815615 109 61 43
-0.0478 1.747777 -0.823307 111 64 44
-0.038056 1.751746 -0.824149 117 71 53
-0.027517 1.760462 -0.826931 121 76 57
-0.017298 1.766447 -0.828589 121 79 60
-0.006878 1.77312 -0.830522 125 79 62
0.005088 1.788387 -0.835954 125 79 63
0.016453 1.79916 -0.839542 124 79 60
0.026323 1.800868 -0.839431 124 79 60
0.036506 1.804063 -0.839923 124 79 60
0.046461 1.805794 -0.839817 124 79 60
0.057787 1.814361 -0.842481 124 77 58
0.068814 1.820922 -0.844325 125 78 58
0.079075 1.823389 -0.844505 126 79 59
0.089466 1.826324 -0.844871 127 79 59
0.101641 1.837332 -0.848494 127 78 58
0.112965 1.843998 -0.850355 126 78 58
0.121065 1.836233 -0.846395 125 77 57
0.130909 1.836373 -0.845622 124 76 56
0.14135 1.839106 -0.845891 126 78 58
0.152971 1.846688 -0.848104 125 77 56
0.163832 1.851036 -0.849011 125 77 56
0.171935 1.844525 -0.845563 126 78 56
0.182246 1.846999 -0.845717 126 78 56
0.192176 1.848169 -0.845347 126 75 54
