ply
format ascii 1.0
comment ---
element vertex 1192
property float x
property float y
property float z
property uchar red
property uchar green
property uchar blue
element face 0
property list uchar uint vertex_indices
end_header
0.146844 2.069086 -0.542285 221 211 200
0.156498 2.065015 -0.54085 220 210 198
0.165939 2.059914 -0.539179 219 209 197
0.175453 2.055274 -0.53761 219 209 197
0.184988 2.050823 -0.536083 217 207 195
0.194833 2.047924 -0.534906 216 207 194
0.204256 2.04309 -0.53329 212 203 190
0.210836 2.02556 -0.528809 196 187 172
0.217725 2.010086 -0.524799 188 180 164
0.227623 2.008182 -0.52385 186 177 162
0.238277 2.009486 -0.523622 187 178 163
0.249049 2.011178 -0.52348 186 177 162
0.256925 2.001083 -0.520694 185 176 161
0.263759 1.987273 -0.517082 185 176 161
0.271941 1.979259 -0.514776 185 176 161
0.282707 1.981422 -0.514752 185 176 160
0.292643 1.980474 -0.514037 186 175 160
0.301156 1.974448 -0.512195 187 176 161
0.309615 1.968571 -0.510396 187 176 161
0.318206 1.963513 -0.508789 187 176 161
0.326997 1.959495 -0.507425 187 176 161
0.335496 1.954821 -0.505926 187 176 161
0.343375 1.948453 -0.504065 187 175 160
0.351559 1.94355 -0.502544 187 175 161
0.360466 1.941419 -0.501652 187 175 161
0.36898 1.938403 -0.500579 187 175 160
0.377617 1.93619 -0.499701 187 175 160
0.388217 1.940457 -0.500271 187 175 160
-0.338209 1.5871 -0.456393 235 231 216
-0.331421 1.600149 -0.459296 237 231 218
-0.324065 1.604814 -0.460163 242 236 222
-0.316672 1.609486 -0.46103 241 235 221
-0.309752 1.625634 -0.464668 241 235 223
-0.302478 1.636577 -0.467043 242 236 224
-0.294969 1.643592 -0.468465 242 236 224
-0.287321 1.647963 -0.469245 241 235 221
-0.279583 1.650271 -0.469526 240 234 220
-0.271872 1.654728 -0.470321 240 234 220
-0.264294 1.669882 -0.473689 240 234 220
-0.256821 1.706948 -0.48232 240 234 220
-0.248846 1.720098 -0.485189 239 233 221
-0.240737 1.726172 -0.486353 240 232 219
-0.232559 1.736348 -0.488497 240 232 219
-0.224284 1.746931 -0.490733 240 232 219
-0.215721 1.772526 -0.496561 240 232 219
-0.207235 1.779639 -0.497952 240 232 219
-0.198617 1.789611 -0.500023 240 232 218
-0.18973 1.806068 -0.503638 239 232 218
-0.180922 1.814962 -0.505439 239 231 218
-0.1722 1.819061 -0.506089 239 231 218
-0.163098 1.831419 -0.508705 239 231 217
-0.153793 1.84552 -0.51173 238 230 217
-0.144636 1.853925 -0.51339 238 230 217
-0.135171 1.866342 -0.515999 238 230 216
-0.125113 1.886553 -0.520454 238 229 216
-0.115743 1.893018 -0.521632 237 229 215
-0.106991 1.889529 -0.520441 237 229 214
-0.099503 1.869282 -0.515272 237 230 214
-0.089043 1.889013 -0.519584 236 229 213
-0.075464 1.943605 -0.532143 236 228 215
-0.065132 1.955415 -0.534552 236 228 215
-0.055522 1.958119 -0.534799 236 229 213
-0.044314 1.976675 -0.538786 235 225 213
-0.03358 1.988714 -0.541223 234 226 213
-0.023959 1.989159 -0.540918 234 225 213
-0.012229 2.008132 -0.544973 215 205 193
-0.00182 2.014097 -0.545954 121 115 103
0.008812 2.021229 -0.547203 102 95 85
0.019484 2.027945 -0.548346 48 41 31
0.030605 2.037374 -0.550119 45 38 28
0.04142 2.043703 -0.551156 46 36 27
0.052223 2.04932 -0.552019 64 54 45
0.063484 2.057487 -0.553472 225 215 203
0.075027 2.066796 -0.555183 227 218 207
0.085964 2.071446 -0.555797 227 218 207
0.097375 2.078559 -0.556979 225 215 205
0.108148 2.081223 -0.557115 225 215 205
0.118471 2.080923 -0.556554 223 213 203
0.128429 2.078386 -0.555469 223 213 203
0.137491 2.070875 -0.553223 221 213 202
0.147473 2.068527 -0.552176 220 211 198
0.157079 2.064169 -0.55066 219 209 197
0.166442 2.05864 -0.54887 217 207 195
0.176009 2.054252 -0.547343 216 206 194
0.185484 2.049484 -0.545727 215 205 193
0.195244 2.046163 -0.544444 215 206 193
0.205115 2.043381 -0.543284 211 203 189
0.213044 2.031884 -0.540114 193 184 169
0.218121 2.008272 -0.534159 186 179 163
0.227439 2.003861 -0.53263 186 177 162
0.237927 2.004495 -0.532261 185 176 162
0.249205 2.008312 -0.532621 185 176 161
0.25776 2.000968 -0.530422 186 175 159
0.262914 1.980491 -0.525222 185 175 159
0.271115 1.97264 -0.522921 185 175 159
0.283016 1.979169 -0.523911 185 175 159
0.293322 1.979574 -0.523505 185 175 159
0.30212 1.97455 -0.521865 186 175 160
0.310239 1.967391 -0.519749 186 175 160
0.318615 1.96154 -0.517939 186 175 160
0.327218 1.956843 -0.516403 186 175 160
0.335524 1.951497 -0.514731 186 175 160
0.34358 1.945715 -0.512973 186 175 160
0.352374 1.942798 -0.511878 186 175 160
0.3607 1.938734 -0.510536 186 175 160
0.368849 1.934531 -0.509179 186 175 160
0.378041 1.934044 -0.508677 186 175 160
0.387226 1.933894 -0.508267 186 175 160
-0.338094 1.587693 -0.464328 117 113 106
-0.331132 1.597981 -0.466605 189 183 170
-0.323843 1.603878 -0.467795 241 235 221
-0.317102 1.621952 -0.471986 241 235 221
-0.309617 1.626926 -0.47294 241 235 221
-0.302228 1.635365 -0.474746 241 235 223
-0.294705 1.642105 -0.476128 242 236 224
-0.287389 1.657642 -0.479673 240 234 222
-0.279351 1.650243 -0.47757 241 235 222
-0.271684 1.657263 -0.479013 241 235 222
-0.264262 1.683796 -0.485243 240 234 221
-0.256476 1.699825 -0.488886 240 234 220
-0.248551 1.717413 -0.492903 240 234 222
-0.24044 1.720709 -0.493411 240 232 221
-0.232279 1.730684 -0.495552 241 233 222
-0.223967 1.747847 -0.499446 240 232 219
-0.215405 1.771972 -0.505035 240 232 219
-0.206911 1.779048 -0.506448 240 232 218
-0.198383 1.784582 -0.507479 239 232 218
-0.18962 1.796883 -0.510158 239 231 218
-0.180749 1.808794 -0.512735 239 231 218
-0.17154 1.826826 -0.516797 239 231 218
-0.162359 1.839901 -0.519643 239 230 217
-0.153253 1.848529 -0.5214 238 230 217
-0.143802 1.862255 -0.52439 238 230 216
-0.134267 1.874988 -0.527132 238 229 216
-0.12462 1.88746 -0.529803 237 229 216
-0.115319 1.892606 -0.53069 237 229 215
-0.106419 1.891152 -0.529973 237 229 214
-0.099401 1.864442 -0.523139 237 230 215
-0.085847 1.923362 -0.537026 237 228 215
-0.07481 1.945437 -0.541982 236 228 215
-0.064871 1.95258 -0.543319 236 229 213
-0.054318 1.965395 -0.546019 236 228 213
-0.042553 1.989118 -0.551339 235 227 213
-0.032948 1.989502 -0.551025 234 226 213
-0.022487 1.997599 -0.552563 233 224 211
-0.011953 2.00548 -0.554041 217 208 196
-0.001196 2.014417 -0.555766 120 111 100
0.009289 2.02024 -0.556736 150 141 132
0.020021 2.027367 -0.558012 214 204 195
0.030582 2.032487 -0.5588 222 212 203
0.042281 2.04535 -0.561434 222 212 202
0.052991 2.050165 -0.562135 223 213 203
0.063991 2.056443 -0.563178 225 217 205
0.075337 2.064404 -0.564615 224 216 205
0.086413 2.069938 -0.565466 224 215 205
0.097569 2.075445 -0.566303 223 214 204
0.109039 2.082307 -0.567456 223 213 203
0.119119 2.0805 -0.566539 222 212 202
0.128943 2.077158 -0.565254 220 212 201
0.139191 2.076156 -0.564522 218 210 199
0.148052 2.067611 -0.561998 216 207 195
0.157746 2.063686 -0.560568 218 208 196
0.167419 2.059693 -0.559119 216 206 194
0.176681 2.053715 -0.5572 215 205 193
0.185934 2.047841 -0.555305 214 204 192
0.195405 2.043142 -0.553687 213 205 192
0.205181 2.039945 -0.552422 212 204 189
0.214056 2.032737 -0.550212 191 181 167
0.219842 2.012201 -0.54487 187 178 163
0.22916 2.007649 -0.543291 186 177 162
0.239395 2.007083 -0.542648 184 175 159
0.248492 2.001815 -0.540904 184 175 160
0.258052 1.998598 -0.539642 184 174 157
0.26602 1.989236 -0.536946 184 174 158
0.273128 1.976938 -0.53357 184 174 158
0.283933 1.979158 -0.533591 184 173 157
0.293761 1.977723 -0.532762 184 173 158
0.302542 1.972616 -0.531083 185 174 159
0.310907 1.966322 -0.529136 185 174 159
0.31958 1.961474 -0.527534 185 174 159
0.327859 1.955602 -0.525704 185 174 159
0.335469 1.947855 -0.523451 185 174 159
0.34413 1.944096 -0.522135 185 174 159
0.353296 1.942358 -0.521298 185 174 159
0.361589 1.938131 -0.519898 185 174 159
0.369596 1.933424 -0.518402 186 174 159
0.377844 1.929933 -0.517202 186 174 159
0.389011 1.935881 -0.518194 186 174 160
-0.344763 1.57653 -0.46959 53 48 46
-0.338136 1.590801 -0.472921 61 55 49
-0.330964 1.597922 -0.474445 186 180 167
-0.323647 1.603471 -0.475569 242 236 222
-0.31699 1.623446 -0.480322 242 236 222
-0.309628 1.631599 -0.482094 241 235 222
-0.302085 1.636954 -0.483159 241 235 223
-0.294532 1.643332 -0.484479 242 236 224
-0.287008 1.652478 -0.486489 241 235 223
-0.279239 1.655149 -0.486872 241 235 222
-0.271523 1.661404 -0.488151 240 234 222
-0.263981 1.682376 -0.493112 240 234 222
-0.256222 1.701256 -0.497542 241 235 221
-0.248223 1.709879 -0.499398 240 233 220
-0.24015 1.72136 -0.501964 240 234 220
-0.231974 1.731325 -0.504146 240 232 219
-0.223675 1.745034 -0.507258 241 233 220
-0.215189 1.763191 -0.511472 240 232 219
-0.206633 1.775571 -0.514238 239 232 218
-0.197985 1.786741 -0.516697 239 231 218
-0.189199 1.799063 -0.519436 239 231 218
-0.18025 1.812745 -0.522507 239 231 218
-0.171085 1.828717 -0.526141 239 230 217
-0.161772 1.844473 -0.529712 238 230 217
-0.152646 1.852811 -0.531435 238 229 216
-0.143391 1.862029 -0.533371 238 229 216
-0.133807 1.875446 -0.536341 238 229 216
-0.124223 1.886616 -0.538748 237 229 215
-0.11492 1.891698 -0.539641 237 229 214
-0.105739 1.894195 -0.539892 236 229 213
-0.097904 1.878191 -0.535569 235 228 212
-0.08396 1.940891 -0.550671 236 227 214
-0.074268 1.945808 -0.551499 236 228 215
-0.06395 1.957064 -0.553883 235 227 214
-0.054328 1.959583 -0.554108 235 227 214
-0.04312 1.97777 -0.558183 235 227 214
-0.032716 1.986314 -0.559877 234 226 213
-0.022363 1.993451 -0.561219 232 224 211
-0.011555 2.003809 -0.563345 221 211 199
-0.000879 2.012022 -0.564937 225 215 204
0.00985 2.019834 -0.566423 223 214 202
0.020927 2.02958 -0.568376 222 212 202
0.031618 2.035512 -0.569388 224 214 204
0.042833 2.044637 -0.571173 224 214 204
0.053851 2.051563 -0.572414 226 216 205
0.06465 2.05634 -0.573123 225 216 205
0.075698 2.062255 -0.574104 225 216 204
0.086983 2.069111 -0.575306 223 215 203
0.09884 2.078883 -0.577211 222 214 203
0.109478 2.080591 -0.577148 221 212 200
0.119818 2.080278 -0.576589 220 210 200
0.130108 2.079515 -0.575918 217 209 198
0.140105 2.077008 -0.57482 216 208 197
0.1488 2.067512 -0.572028 216 206 194
0.158661 2.064404 -0.570781 214 204 192
0.168325 2.06029 -0.569289 214 204 192
0.177382 2.05324 -0.567088 213 203 191
0.186536 2.046852 -0.565045 213 203 191
0.195845 2.041364 -0.56322 214 205 192
0.204987 2.035247 -0.561243 210 201 188
0.214707 2.031888 -0.55993 189 180 166
0.223418 2.02416 -0.557568 186 177 162
0.231629 2.014552 -0.554757 184 175 160
0.241877 2.013829 -0.554078 184 175 158
0.250478 2.006335 -0.551779 183 174 157
0.258651 1.997399 -0.549139 183 173 157
0.265896 1.985172 -0.545718 183 173 157
0.273753 1.975804 -0.542987 182 172 156
0.284287 1.976956 -0.542769 182 172 156
0.294177 1.975734 -0.541989 182 171 156
0.302874 1.970304 -0.540213 183 172 157
0.312075 1.966981 -0.538945 184 173 158
0.320693 1.961872 -0.53726 184 173 158
0.328371 1.953868 -0.534898 184 173 158
0.336543 1.948002 -0.533054 184 173 158
0.34527 1.944399 -0.531757 184 173 158
0.354191 1.941791 -0.530706 184 173 158
0.362651 1.938052 -0.5294 184 173 158
0.370961 1.934248 -0.528092 185 173 159
0.378996 1.930019 -0.526698 185 173 159
0.38495 1.91985 -0.52392 185 173 159
-0.34454 1.575403 -0.477079 227 223 212
-0.338083 1.592438 -0.481186 107 100 91
-0.330841 1.598684 -0.482513 200 193 182
-0.323615 1.606173 -0.484158 243 237 223
-0.316445 1.616154 -0.486438 243 237 223
-0.309528 1.633851 -0.490693 241 235 222
-0.302019 1.640591 -0.492133 242 236 224
-0.294401 1.645863 -0.493194 243 237 225
-0.28679 1.652861 -0.494694 242 236 224
-0.279005 1.655345 -0.495036 240 234 220
-0.271159 1.655697 -0.494832 240 234 221
-0.263749 1.684305 -0.501842 240 234 222
-0.255944 1.700932 -0.505784 240 233 222
-0.24796 1.713472 -0.508676 239 233 221
-0.239854 1.722193 -0.51059 241 233 220
-0.231641 1.738606 -0.514458 240 232 219
-0.22342 1.73723 -0.513792 241 233 220
-0.214986 1.753289 -0.517558 240 232 219
-0.206314 1.774149 -0.522537 239 232 218
-0.19765 1.785844 -0.52518 239 231 218
-0.188694 1.804099 -0.529481 239 231 218
-0.179959 1.809956 -0.53063 239 230 217
-0.170679 1.829057 -0.535131 238 230 217
-0.161609 1.838606 -0.537204 238 230 217
-0.152394 1.849226 -0.539543 238 229 216
-0.142681 1.867515 -0.543814 237 229 216
-0.13341 1.874625 -0.545253 237 229 215
-0.123721 1.887388 -0.548113 237 229 215
-0.113761 1.902304 -0.551509 237 228 214
-0.104102 1.910746 -0.553265 235 227 212
-0.09451 1.917083 -0.554486 237 229 213
-0.083961 1.934507 -0.558491 236 227 214
-0.073365 1.950349 -0.562089 236 228 215
-0.063607 1.954937 -0.56285 235 227 214
-0.053571 1.961851 -0.56419 235 227 214
-0.042747 1.975888 -0.567312 234 226 213
-0.032245 1.985346 -0.569277 233 225 212
-0.022106 1.990432 -0.57014 232 223 211
-0.010997 2.003464 -0.572985 231 221 209
-0.000648 2.008818 -0.573903 229 219 207
0.010632 2.021121 -0.576551 229 219 207
0.021569 2.029624 -0.578241 228 218 206
0.032279 2.035599 -0.579294 228 218 208
0.043302 2.043231 -0.580753 227 217 207
0.054618 2.052203 -0.582539 225 216 203
0.065388 2.05668 -0.5832 224 214 202
0.076263 2.061363 -0.583905 222 213 201
0.087851 2.070084 -0.585607 219 211 199
0.099338 2.077458 -0.586968 219 211 199
0.110129 2.08005 -0.587136 218 210 199
0.120315 2.078792 -0.586346 216 208 197
0.130356 2.076606 -0.585323 215 207 195
0.14016 2.073063 -0.583962 215 206 194
0.149841 2.068883 -0.582442 214 204 192
0.159678 2.065554 -0.58113 213 203 191
0.169289 2.061092 -0.579537 212 202 190
0.177941 2.051978 -0.576798 212 202 190
0.187103 2.04561 -0.574735 212 202 190
0.196506 2.040547 -0.572993 215 205 193
0.205952 2.03579 -0.571326 210 200 188
0.214496 2.027102 -0.568695 190 181 166
0.223331 2.019984 -0.566451 184 175 160
0.232629 2.015071 -0.564749 184 175 160
0.242144 2.011212 -0.563306 184 175 160
0.251704 2.007651 -0.561936 182 173 156
0.259352 1.996543 -0.558728 182 173 156
0.266324 1.983222 -0.554987 181 172 156
0.274645 1.975633 -0.552648 181 171 156
0.284233 1.973155 -0.551558 181 171 155
0.294122 1.971944 -0.55078 181 170 155
0.303365 1.968512 -0.549467 181 170 155
0.312494 1.964912 -0.54812 181 171 156
0.321426 1.960884 -0.546675 182 171 157
0.329852 1.955421 -0.544891 183 172 157
0.338298 1.950399 -0.543224 183 172 157
0.346579 1.945217 -0.541529 183 172 157
0.354811 1.940287 -0.539905 183 172 158
0.363367 1.93682 -0.538646 184 172 158
0.372236 1.934749 -0.537735 184 172 158
0.380537 1.931286 -0.536502 185 173 158
0.387454 1.924012 -0.534367 185 173 159
-0.344585 1.578263 -0.485623 225 222 211
-0.337954 1.592927 -0.489186 82 74 65
-0.330652 1.598355 -0.490324 208 200 190
-0.323468 1.606805 -0.49225 243 237 225
-0.316168 1.614365 -0.493941 243 237 225
-0.309331 1.633972 -0.498777 243 237 225
-0.30184 1.641455 -0.500438 242 236 224
-0.294405 1.652461 -0.503016 241 235 222
-0.286578 1.653565 -0.503006 242 236 223
-0.278704 1.653009 -0.502563 241 235 221
-0.27089 1.654866 -0.502747 241 235 221
-0.263519 1.68661 -0.510709 240 234 221
-0.25567 1.701326 -0.51423 241 234 222
-0.247683 1.715703 -0.517656 240 233 220
-0.239556 1.724287 -0.519571 240 232 219
-0.231351 1.732247 -0.521321 239 231 218
-0.223053 1.742482 -0.523656 240 232 219
-0.21446 1.767713 -0.529872 239 232 218
-0.205807 1.782968 -0.533495 239 231 218
-0.197275 1.786455 -0.534065 239 231 218
-0.18852 1.796806 -0.536407 239 230 217
-0.179606 1.808947 -0.539206 238 230 217
-0.17085 1.81361 -0.540068 238 230 217
-0.16132 1.835674 -0.545417 238 229 216
-0.151723 1.854537 -0.54993 237 229 216
-0.14216 1.869122 -0.553332 237 229 216
-0.132913 1.875459 -0.554603 237 228 215
-0.123582 1.882065 -0.555939 237 228 215
-0.113711 1.895793 -0.559101 236 228 214
-0.103613 1.910753 -0.562571 234 226 211
-0.093794 1.919931 -0.56455 237 228 213
-0.083394 1.935139 -0.568069 236 227 214
-0.073708 1.94004 -0.568938 236 228 215
-0.062762 1.958322 -0.57323 235 227 214
-0.05307 1.961283 -0.573591 234 226 213
-0.042458 1.973063 -0.576203 235 227 214
-0.031696 1.985019 -0.578852 233 225 212
-0.021457 1.99094 -0.579953 232 222 210
-0.010734 2.000426 -0.581957 231 222 209
-0.000128 2.007963 -0.583459 230 220 208
0.010914 2.018251 -0.585654 227 217 205
0.022129 2.02892 -0.587938 227 217 205
0.03296 2.035736 -0.589236 227 217 207
0.044684 2.048338 -0.591996 225 215 204
0.055301 2.052151 -0.592517 223 213 201
0.066062 2.056485 -0.593166 221 212 200
0.077334 2.063684 -0.594534 220 212 199
0.088376 2.068782 -0.595364 217 209 198
0.100215 2.07827 -0.597298 217 209 198
0.110893 2.080088 -0.597287 215 207 196
0.121115 2.078972 -0.59653 215 207 196
0.130711 2.074219 -0.594853 213 205 194
0.140552 2.070884 -0.593532 212 204 191
0.150508 2.068163 -0.592364 212 203 190
0.160394 2.065056 -0.591097 210 201 189
0.169754 2.059285 -0.589158 211 201 189
0.1786 2.051125 -0.586619 211 201 189
0.187906 2.045423 -0.584698 211 201 189
0.19765 2.041906 -0.583324 212 202 190
0.206613 2.034854 -0.581065 205 195 182
0.214939 2.025174 -0.57815 188 179 164
0.224028 2.019159 -0.576153 184 175 160
0.233319 2.014186 -0.574418 184 175 160
0.242415 2.008546 -0.572517 183 174 159
0.251317 2.002301 -0.570469 181 172 157
0.260487 1.99735 -0.568745 181 172 156
0.267784 1.985252 -0.565247 180 171 155
0.276164 1.977803 -0.562911 180 170 155
0.285221 1.973228 -0.561293 180 170 155
0.294632 1.97019 -0.560061 180 170 154
0.303839 1.966609 -0.558699 180 170 155
0.31293 1.962851 -0.557298 180 170 155
0.32167 1.958135 -0.555668 181 170 155
0.330946 1.955584 -0.55458 181 170 156
0.339265 1.950083 -0.552771 182 170 156
0.347592 1.945004 -0.551077 182 171 156
0.355878 1.940198 -0.54946 183 171 157
0.364089 1.935574 -0.547899 183 171 157
0.372884 1.93323 -0.54691 183 172 157
0.381004 1.929172 -0.545512 184 172 158
0.389906 1.927968 -0.544828 184 172 158
-0.344681 1.5819 -0.494423 69 66 58
-0.33779 1.592904 -0.497074 56 49 41
-0.330484 1.598424 -0.498257 206 198 188
-0.323229 1.605738 -0.499916 244 238 226
-0.316397 1.623058 -0.504239 243 237 225
-0.309048 1.632188 -0.506374 242 236 224
-0.301638 1.641809 -0.508636 242 236 224
-0.294184 1.652633 -0.511214 242 236 222
-0.286332 1.653237 -0.511071 242 236 222
-0.278451 1.652714 -0.510628 240 234 220
-0.270804 1.6634 -0.51316 241 235 221
-0.263292 1.689495 -0.519773 239 233 219
-0.255513 1.713406 -0.525798 241 234 221
-0.247463 1.729069 -0.529628 239 233 219
-0.239264 1.74085 -0.532424 240 233 219
-0.230838 1.782559 -0.54313 241 233 220
-0.213669 1.801079 -0.547352 239 231 218
-0.205519 1.77921 -0.541241 239 231 218
-0.196741 1.793744 -0.544738 239 230 217
-0.187992 1.802174 -0.546619 238 230 217
-0.179193 1.809609 -0.548233 238 230 217
-0.169944 1.827145 -0.552502 238 229 217
-0.160799 1.838121 -0.555037 237 229 216
-0.151585 1.848246 -0.557343 237 228 216
-0.141791 1.867626 -0.562073 237 228 215
-0.132575 1.873338 -0.563208 237 228 215
-0.123008 1.88377 -0.565577 236 228 214
-0.113052 1.898458 -0.569054 236 227 214
-0.103572 1.904275 -0.570202 235 226 211
-0.093172 1.921415 -0.574307 236 227 212
-0.082996 1.93355 -0.577095 236 227 212
-0.0728 1.944401 -0.579541 235 226 211
-0.062472 1.955399 -0.582019 236 226 214
-0.052197 1.964545 -0.584006 235 226 213
-0.041579 1.976079 -0.58661 234 226 213
-0.031433 1.981859 -0.587709 232 224 211
-0.021093 1.988722 -0.589084 231 223 210
-0.010744 1.994903 -0.590276 229 221 208
0.000794 2.010393 -0.593881 229 219 207
0.011696 2.019341 -0.595779 226 218 205
0.022757 2.028657 -0.597766 226 216 206
0.033839 2.037257 -0.59956 225 215 205
0.045302 2.047811 -0.601853 224 214 203
0.056265 2.053959 -0.602999 222 212 201
0.067206 2.059356 -0.603944 219 211 200
0.078388 2.065787 -0.605152 218 210 199
0.089489 2.071105 -0.606066 216 208 197
0.100975 2.078266 -0.607449 214 206 195
0.111692 2.080237 -0.60749 213 205 194
0.121814 2.078477 -0.606566 212 204 193
0.131497 2.074164 -0.604983 210 202 190
0.141339 2.070777 -0.603636 211 203 190
0.151157 2.06727 -0.602258 210 201 189
0.160766 2.062692 -0.600603 209 200 187
0.169905 2.055816 -0.598358 209 199 187
0.17908 2.049311 -0.596209 209 199 187
0.188647 2.044851 -0.594583 209 200 187
0.198212 2.040455 -0.592974 210 201 189
0.207936 2.036867 -0.59157 201 191 179
0.216379 2.027615 -0.588721 186 177 162
0.225167 2.020188 -0.586341 182 173 158
0.234051 2.013404 -0.584126 182 173 158
0.24292 2.006786 -0.581955 181 172 157
0.251708 2.000066 -0.579761 179 170 155
0.260769 1.994675 -0.577908 180 171 156
0.270616 1.992571 -0.57689 180 171 156
0.278376 1.982553 -0.57387 180 170 155
0.286785 1.9754 -0.571582 179 169 154
0.295385 1.969275 -0.569558 179 169 154
0.304683 1.965988 -0.568257 179 169 154
0.313831 1.962392 -0.566883 179 169 154
0.322589 1.957694 -0.565238 180 169 154
0.330875 1.951708 -0.563275 180 169 155
0.339953 1.948776 -0.562089 181 170 155
0.348877 1.945645 -0.560861 181 170 156
0.357267 1.941118 -0.559291 182 170 156
0.365517 1.936553 -0.557722 182 170 156
0.3731 1.930319 -0.555745 183 171 157
0.381497 1.927113 -0.554539 183 171 157
0.388131 1.918946 -0.552103 184 172 158
-0.351852 1.578086 -0.501543 193 190 182
-0.344862 1.586852 -0.503636 50 48 42
-0.337799 1.59566 -0.505737 54 49 41
-0.330333 1.598832 -0.506303 215 207 196
-0.323171 1.608133 -0.508532 244 237 225
-0.316313 1.625387 -0.512917 243 237 225
-0.30881 1.63149 -0.514269 242 236 224
-0.301463 1.642916 -0.517062 243 237 225
-0.293898 1.650978 -0.51894 242 236 224
-0.28614 1.654884 -0.519688 242 236 222
-0.278281 1.655932 -0.519661 241 235 221
-0.270436 1.657989 -0.519907 241 235 221
-0.263122 1.696464 -0.52999 240 234 221
-0.2553 1.720844 -0.536252 240 234 220
-0.247166 1.729771 -0.538336 239 233 221
-0.238947 1.735085 -0.539441 240 233 221
-0.230676 1.7411 -0.540733 241 233 220
-0.222329 1.749461 -0.542652 239 232 219
-0.213772 1.767436 -0.547155 239 232 218
-0.205105 1.782064 -0.55075 239 231 218
-0.196304 1.796451 -0.554273 238 230 217
-0.187566 1.803578 -0.555841 238 230 217
-0.178637 1.814438 -0.558406 238 229 217
-0.169504 1.827885 -0.56166 238 229 216
-0.160142 1.843609 -0.565517 237 229 216
-0.150982 1.851752 -0.567338 237 228 215
-0.141552 1.863482 -0.570113 237 228 215
-0.132128 1.873016 -0.572295 236 228 215
-0.122626 1.882199 -0.574378 236 227 214
-0.112292 1.9025 -0.579424 236 227 214
-0.102802 1.908011 -0.580515 236 227 214
-0.092566 1.92255 -0.584008 236 226 214
-0.082767 1.929763 -0.585543 236 226 214
-0.071974 1.94765 -0.589913 235 225 213
-0.061837 1.956199 -0.591791 235 225 213
-0.051215 1.968824 -0.594747 234 224 212
-0.04116 1.974363 -0.595814 232 224 211
-0.030895 1.981231 -0.597229 231 223 210
-0.020395 1.989463 -0.599 230 222 209
-0.009116 2.003628 -0.602337 229 221 208
0.001504 2.010924 -0.603848 226 218 207
0.012708 2.022172 -0.606398 225 217 205
0.023402 2.028425 -0.607621 224 216 205
0.034196 2.034772 -0.608864 223 214 204
0.04595 2.047399 -0.611758 221 212 202
0.056782 2.052558 -0.612675 220 211 200
0.067592 2.057024 -0.613404 217 209 198
0.078849 2.063922 -0.614769 214 206 195
0.090616 2.073406 -0.616808 213 205 194
0.101801 2.078565 -0.617703 212 204 193
0.112267 2.07897 -0.617345 210 202 191
0.122376 2.077097 -0.616387 209 201 190
0.132116 2.073083 -0.614866 208 200 187
0.142153 2.070727 -0.613777 208 200 187
0.152066 2.067657 -0.6125 207 197 185
0.161369 2.061438 -0.610399 207 197 185
0.170247 2.053235 -0.607779 206 196 184
0.179772 2.048452 -0.606053 206 197 184
0.189236 2.043468 -0.604275 205 197 184
0.198239 2.036433 -0.601962 208 200 187
0.208386 2.034804 -0.601057 197 188 176
0.217752 2.029668 -0.599239 182 173 159
0.226044 2.019988 -0.596242 179 171 156
0.234909 2.013084 -0.593969 179 170 154
0.243544 2.005452 -0.591508 180 171 154
0.252197 1.998161 -0.58914 179 170 155
0.261526 1.993833 -0.587541 178 169 153
0.270631 1.988792 -0.58576 178 169 154
0.279296 1.982273 -0.5836 178 169 154
0.287411 1.973973 -0.580986 180 169 155
0.296165 1.968401 -0.57908 180 169 154
0.305309 1.964518 -0.577614 179 168 152
0.314871 1.962364 -0.576598 179 168 153
0.323623 1.957598 -0.574915 179 169 154
0.331688 1.95081 -0.57272 180 169 155
0.340447 1.946769 -0.571237 180 169 154
0.349845 1.94519 -0.570394 181 169 155
0.358021 1.939926 -0.568614 181 169 155
0.366084 1.934734 -0.566862 182 170 156
0.373696 1.928573 -0.564873 182 170 156
0.381569 1.923722 -0.563229 182 170 156
0.392937 1.930024 -0.564444 184 172 158
-0.351826 1.579741 -0.509875 52 49 44
-0.344638 1.58585 -0.511269 52 49 45
-0.337406 1.592057 -0.512687 53 49 40
-0.330466 1.604176 -0.51574 222 214 203
-0.323426 1.616472 -0.518837 243 237 225
-0.315993 1.622897 -0.520306 243 237 225
-0.308545 1.630231 -0.522023 242 236 224
-0.301127 1.639978 -0.524404 242 236 224
-0.293606 1.649253 -0.52665 241 235 223
-0.286019 1.659077 -0.529044 241 235 221
-0.278108 1.659246 -0.528774 241 235 221
-0.270572 1.678385 -0.533726 241 235 221
-0.262857 1.697466 -0.538654 240 234 222
-0.254835 1.703764 -0.540061 240 234 221
-0.246862 1.730089 -0.546966 239 233 220
-0.238627 1.728974 -0.546328 240 232 219
-0.230341 1.742721 -0.549766 241 233 220
-0.22201 1.74713 -0.550639 239 232 219
-0.213374 1.770625 -0.556738 239 232 219
-0.204812 1.778095 -0.55844 238 231 218
-0.196148 1.786812 -0.560479 238 230 217
-0.187129 1.805173 -0.565151 238 230 217
-0.178064 1.819523 -0.568719 238 229 217
-0.168704 1.837999 -0.573407 237 229 216
-0.159638 1.845283 -0.575033 237 228 216
-0.150602 1.850353 -0.576052 237 228 215
-0.141512 1.855416 -0.577066 236 228 215
-0.131713 1.872005 -0.581214 236 227 215
-0.122083 1.883122 -0.583866 236 227 214
-0.111467 1.90738 -0.590083 236 226 214
-0.101693 1.916377 -0.592145 235 226 213
-0.091955 1.923625 -0.593727 235 225 213
-0.082165 1.930497 -0.595203 235 225 213
-0.071665 1.944735 -0.59867 234 224 212
-0.061269 1.956154 -0.601366 234 224 212
-0.050956 1.965371 -0.60346 234 224 212
-0.040539 1.974573 -0.605544 231 223 210
-0.030114 1.982828 -0.607367 230 222 209
-0.019282 1.993881 -0.60994 228 220 208
-0.009237 1.996953 -0.610353 228 219 209
0.001915 2.008858 -0.613143 226 216 206
0.012771 2.017259 -0.614983 224 216 205
0.023909 2.027025 -0.617184 222 214 203
0.034979 2.03538 -0.618999 221 213 202
0.046335 2.045005 -0.62115 219 211 200
0.057327 2.051254 -0.622387 216 208 197
0.068198 2.056079 -0.623238 215 207 196
0.079326 2.062074 -0.624397 211 203 192
0.091299 2.072811 -0.626821 209 201 190
0.102315 2.076874 -0.627451 209 201 190
0.112759 2.077116 -0.627056 208 200 189
0.122591 2.073637 -0.625663 207 199 187
0.132526 2.070747 -0.624427 207 199 186
0.142628 2.068743 -0.623425 206 198 185
0.152525 2.06558 -0.622113 205 197 184
0.162161 2.061068 -0.620441 205 196 183
0.171083 2.053046 -0.617835 204 194 182
0.180198 2.046211 -0.615545 205 195 183
0.189649 2.041162 -0.613731 204 195 183
0.199398 2.037604 -0.612312 206 198 185
0.208383 2.030612 -0.609983 192 184 170
0.217658 2.025112 -0.60805 181 174 158
0.227047 2.020255 -0.606289 178 171 154
0.235779 2.012731 -0.603823 177 169 152
0.244404 2.005023 -0.601311 177 169 152
0.253158 1.998104 -0.59901 177 168 151
0.26236 1.99322 -0.59725 176 167 150
0.271469 1.98816 -0.595444 177 168 153
0.279131 1.977778 -0.592242 177 168 153
0.287688 1.971181 -0.59004 178 169 154
0.296719 1.966629 -0.58838 177 168 153
0.305954 1.96306 -0.586983 178 168 152
0.315517 1.960886 -0.585955 177 168 153
0.32447 1.956797 -0.58443 178 169 154
0.332952 1.951402 -0.582569 180 169 155
0.341465 1.94648 -0.580839 181 169 155
0.350504 1.943667 -0.579667 183 171 157
0.358589 1.938087 -0.57778 182 170 156
0.367063 1.934194 -0.576341 181 169 155
0.374794 1.928374 -0.57441 181 169 155
0.382965 1.924406 -0.572971 182 170 156
0.388395 1.912534 -0.569484 183 171 157
-0.351581 1.5784 -0.517399 211 208 199
-0.34437 1.584233 -0.518739 57 56 49
-0.337173 1.591035 -0.52035 55 50 43
-0.329919 1.597845 -0.52196 224 216 205
-0.323051 1.613013 -0.525922 244 237 225
-0.315617 1.619302 -0.52738 242 236 224
-0.308212 1.627466 -0.529361 242 236 224
-0.30073 1.635512 -0.531307 241 235 223
-0.293402 1.650187 -0.535111 242 236 224
-0.285809 1.660384 -0.537653 241 235 222
-0.278175 1.67264 -0.540768 240 234 220
-0.270412 1.684091 -0.543652 241 235 221
-0.262492 1.691984 -0.545534 241 234 222
-0.254596 1.709437 -0.55009 241 233 220
-0.246528 1.725458 -0.554238 240 233 222
-0.238307 1.732084 -0.555753 240 232 219
-0.230013 1.741616 -0.558076 239 233 219
-0.221561 1.758394 -0.562418 239 232 219
-0.213091 1.765152 -0.563959 239 232 219
-0.204522 1.773724 -0.566001 238 231 218
-0.195674 1.790635 -0.570362 238 230 217
-0.186795 1.802888 -0.57342 238 229 217
-0.177875 1.812774 -0.575813 237 229 217
-0.168614 1.829077 -0.579986 237 229 216
-0.159304 1.8428 -0.583434 237 228 215
-0.150237 1.848519 -0.584655 236 228 215
-0.140728 1.861535 -0.587897 236 227 215
-0.130903 1.877796 -0.592031 236 227 215
-0.121621 1.88262 -0.59299 236 226 214
-0.111208 1.903588 -0.598415 235 226 214
-0.101376 1.913463 -0.600762 236 226 214
-0.091297 1.92519 -0.603615 235 225 213
-0.081316 1.934163 -0.605702 235 225 213
-0.070928 1.946715 -0.608772 234 224 212
-0.060893 1.953882 -0.61035 233 223 211
-0.050518 1.963709 -0.612656 232 222 210
-0.040062 1.973236 -0.614875 229 221 208
-0.029642 1.981366 -0.616703 230 222 209
-0.019092 1.989783 -0.618606 227 219 206
-0.008327 1.999183 -0.620773 226 217 205
0.002226 2.005864 -0.622188 224 216 205
0.013106 2.014456 -0.624122 223 215 204
0.024665 2.027453 -0.627258 221 213 202
0.035363 2.032916 -0.628324 219 211 200
0.046908 2.043864 -0.630885 216 208 197
0.058483 2.054089 -0.633243 214 206 195
0.069439 2.059295 -0.634222 211 203 192
0.080392 2.063952 -0.635048 209 201 190
0.091525 2.069256 -0.636045 207 199 188
0.102736 2.074522 -0.637027 207 199 188
0.11315 2.07458 -0.636587 206 198 187
0.123489 2.074014 -0.635974 205 197 186
0.133017 2.068781 -0.63409 204 196 185
0.142935 2.065758 -0.632807 203 195 184
0.152759 2.062227 -0.631384 201 193 182
0.162202 2.056758 -0.629436 201 193 180
0.171296 2.049654 -0.627045 202 193 181
0.180612 2.043829 -0.625001 202 194 181
0.190308 2.039951 -0.623484 202 193 181
0.199898 2.035626 -0.621847 205 195 183
0.209414 2.03104 -0.620139 191 184 168
0.218026 2.022543 -0.617376 179 172 156
0.227299 2.017187 -0.615462 176 169 151
0.236487 2.011619 -0.613493 177 168 151
0.245075 2.003733 -0.610902 176 167 150
0.254108 1.997929 -0.608873 176 167 150
0.263463 1.993608 -0.607245 176 167 150
0.272594 1.988575 -0.605428 175 166 150
0.280083 1.977486 -0.601989 176 167 152
0.288489 1.97029 -0.5996 176 167 152
0.297831 1.966848 -0.59822 176 167 152
0.306877 1.962544 -0.596613 176 166 151
0.31623 1.959584 -0.595369 176 167 152
0.324871 1.954393 -0.593534 177 168 153
0.333452 1.949333 -0.591739 178 168 153
0.3416 1.943181 -0.589659 177 169 153
0.350431 1.939693 -0.588296 180 169 155
0.358681 1.934673 -0.586532 180 168 154
0.367266 1.931143 -0.585173 181 169 155
0.375497 1.926901 -0.583631 181 169 154
0.383239 1.921589 -0.581815 181 169 154
0.39289 1.922574 -0.581678 182 170 155
-0.351156 1.574588 -0.524219 217 215 203
-0.344237 1.58464 -0.526795 182 183 175
-0.336994 1.590915 -0.528282 69 62 56
-0.329944 1.601418 -0.53098 230 222 211
-0.32274 1.610801 -0.533352 242 234 223
-0.315465 1.620386 -0.535779 242 236 224
-0.30801 1.627794 -0.537579 241 235 223
-0.300688 1.640316 -0.540839 241 235 223
-0.293209 1.651564 -0.54373 242 236 224
-0.285602 1.661907 -0.546358 240 234 222
-0.277944 1.673995 -0.54948 240 234 222
-0.270107 1.682571 -0.551594 240 234 221
-0.262279 1.697083 -0.555398 242 233 220
-0.254241 1.703851 -0.55699 241 233 220
-0.246167 1.715776 -0.560047 240 232 221
-0.237982 1.737306 -0.565832 240 233 221
-0.229677 1.741082 -0.56656 239 233 220
-0.221241 1.755045 -0.570181 239 232 219
-0.212612 1.773219 -0.574991 239 231 219
-0.204096 1.776314 -0.575516 238 230 218
-0.19519 1.794564 -0.580335 238 230 217
-0.1863 1.806067 -0.583236 238 229 217
-0.177447 1.813076 -0.584859 237 229 216
-0.168023 1.833255 -0.590205 237 229 216
-0.158965 1.840275 -0.591822 236 228 215
-0.149865 1.846679 -0.593261 236 228 215
-0.140126 1.863978 -0.597773 236 227 215
-0.130647 1.873715 -0.600143 236 227 214
-0.121071 1.883381 -0.60249 236 226 214
-0.111112 1.897266 -0.606019 236 226 215
-0.101366 1.906167 -0.60814 235 225 215
-0.091298 1.91801 -0.611083 235 225 215
-0.080543 1.936757 -0.61596 234 224 212
-0.070411 1.946013 -0.618164 233 223 211
-0.060199 1.955007 -0.620289 232 222 210
-0.050032 1.962448 -0.621973 232 222 210
-0.039554 1.972107 -0.624275 231 221 209
-0.028739 1.983888 -0.627165 228 219 207
-0.018227 1.991716 -0.628943 226 218 205
-0.007612 1.999603 -0.630733 224 216 203
0.003063 2.00716 -0.632426 224 214 204
0.014187 2.017529 -0.634899 222 214 203
0.025524 2.028568 -0.637553 220 211 200
0.03645 2.035569 -0.639075 217 209 198
0.047683 2.044082 -0.641013 213 205 194
0.0593 2.054468 -0.643467 211 203 192
0.070121 2.058662 -0.644193 210 202 191
0.081256 2.064425 -0.645351 208 200 189
0.092394 2.069647 -0.646355 205 197 186
0.10328 2.072834 -0.646789 205 197 186
0.113912 2.074144 -0.6467 203 195 184
0.124025 2.072222 -0.645712 202 194 183
0.133971 2.069294 -0.644445 202 194 183
0.143412 2.063617 -0.642417 200 192 181
0.153078 2.059249 -0.640751 201 193 181
0.162155 2.051925 -0.638269 199 191 178
0.171509 2.04619 -0.636226 200 192 179
0.181178 2.042112 -0.634641 200 192 179
0.190548 2.036673 -0.632681 202 193 180
0.200491 2.034002 -0.631484 203 194 180
0.209517 2.027181 -0.629144 187 180 164
0.218679 2.021159 -0.627027 177 170 154
0.227664 2.014539 -0.624746 175 168 151
0.236653 2.008137 -0.622527 174 166 150
0.24563 2.001888 -0.620351 174 165 148
0.255089 1.997801 -0.618771 173 164 147
0.264541 1.993818 -0.61722 173 164 146
0.273631 1.988573 -0.615325 173 164 148
0.28233 1.982053 -0.613086 174 165 150
0.29054 1.973991 -0.610428 174 165 150
0.299097 1.96756 -0.608221 175 166 151
0.307867 1.962207 -0.606311 174 165 150
0.316864 1.957954 -0.604705 175 166 151
0.325324 1.95212 -0.602673 176 167 152
0.333429 1.945439 -0.600416 176 167 152
0.341818 1.940119 -0.598535 176 167 152
0.350832 1.937241 -0.597324 178 167 153
0.359266 1.932816 -0.595698 180 168 154
0.367898 1.929425 -0.594359 180 168 154
0.376151 1.925237 -0.592811 180 168 154
0.384119 1.920613 -0.591153 180 168 154
0.388208 1.904675 -0.586446 180 168 154
-0.357717 1.562852 -0.529021 229 225 214
-0.35088 1.572865 -0.531633 228 227 217
-0.34414 1.585605 -0.535039 217 217 209
-0.336932 1.592693 -0.536788 72 65 59
-0.329932 1.604434 -0.539893 236 227 217
-0.322615 1.612144 -0.541818 242 236 224
-0.315369 1.622714 -0.544573 240 234 222
-0.307934 1.631116 -0.546693 240 234 222
-0.300423 1.639424 -0.548782 241 235 223
-0.293022 1.653225 -0.552466 241 235 223
-0.285417 1.664337 -0.555363 240 234 221
-0.277742 1.676721 -0.558625 240 234 222
-0.269865 1.68449 -0.560543 241 235 222
-0.262023 1.699601 -0.564586 241 233 220
-0.253922 1.702254 -0.565013 241 233 220
-0.245795 1.703962 -0.565165 242 234 221
-0.237652 1.733994 -0.573515 240 232 221
-0.229339 1.740231 -0.574969 239 233 221
-0.22081 1.76277 -0.581134 239 232 219
-0.212228 1.77415 -0.584066 238 231 218
-0.203701 1.776959 -0.584518 238 230 218
-0.194957 1.787711 -0.587261 238 230 217
-0.186011 1.801821 -0.590967 238 229 217
-0.176767 1.820718 -0.596046 237 229 216
-0.167586 1.833161 -0.599259 237 228 216
-0.158543 1.839571 -0.600731 236 228 215
-0.149478 1.845041 -0.601931 236 228 215
-0.13975 1.861981 -0.606422 236 228 215
-0.130539 1.866986 -0.60748 236 226 214
-0.120773 1.879999 -0.610832 236 226 214
-0.110147 1.903813 -0.617274 235 225 214
-0.100175 1.915217 -0.620151 234 224 214
-0.090616 1.919668 -0.621033 234 224 214
-0.080526 1.929954 -0.623581 233 223 213
-0.069609 1.948491 -0.628483 232 222 211
-0.05961 1.954863 -0.629901 231 221 209
-0.049011 1.966654 -0.632862 231 221 209
-0.038481 1.976475 -0.635256 230 220 208
-0.028184 1.983007 -0.636707 227 217 206
-0.017619 1.991221 -0.638633 225 217 203
-0.006717 2.00147 -0.641134 223 215 203
0.004532 2.013592 -0.644162 221 213 202
0.015309 2.020811 -0.645791 219 211 200
0.026044 2.02698 -0.647116 218 209 198
0.037238 2.035909 -0.649221 216 208 197
0.048015 2.041039 -0.650244 212 204 193
0.059409 2.049874 -0.652313 209 201 190
0.070538 2.05617 -0.653657 207 199 188
0.081411 2.060225 -0.654364 205 197 186
0.093297 2.070149 -0.656726 203 195 184
0.104551 2.075453 -0.657777 201 193 182
0.114817 2.074455 -0.657045 201 193 182
0.124917 2.072376 -0.656008 200 192 181
0.13485 2.069306 -0.65469 201 194 182
0.144551 2.064965 -0.653014 202 194 181
0.153906 2.058866 -0.650844 203 195 182
0.163169 2.052442 -0.648583 203 195 182
0.172389 2.045967 -0.646309 201 193 181
0.181944 2.041286 -0.64454 200 192 179
0.191715 2.037705 -0.643079 198 190 176
0.200718 2.030606 -0.640633 200 192 176
0.210341 2.02651 -0.63903 184 177 161
0.219315 2.019624 -0.636646 174 167 151
0.228344 2.013176 -0.634387 173 165 149
0.237215 2.006261 -0.631999 171 162 147
0.246237 2.00019 -0.629849 171 162 145
0.255641 1.995862 -0.628187 171 162 145
0.265056 1.991726 -0.62658 171 162 145
0.274446 1.987636 -0.624988 172 163 146
0.283376 1.981969 -0.622959 173 164 147
0.292001 1.975417 -0.620687 172 163 148
0.300132 1.967358 -0.617999 173 164 149
0.308524 1.960613 -0.615682 173 164 149
0.317174 1.955124 -0.613716 173 164 149
0.325202 1.94781 -0.61125 175 166 151
0.333425 1.94157 -0.609087 175 166 151
0.341973 1.936808 -0.607337 176 166 151
0.350795 1.933312 -0.605943 177 165 151
0.359193 1.928796 -0.604272 178 166 152
0.368142 1.926435 -0.603202 178 166 152
0.376697 1.923205 -0.601898 180 168 154
0.384763 1.918875 -0.600297 179 167 153
0.393719 1.917707 -0.599574 179 167 153
-0.357691 1.564365 -0.537359 207 207 198
-0.351022 1.576974 -0.540787 85 84 78
-0.34383 1.583459 -0.542389 50 49 43
-0.336844 1.594108 -0.545226 61 54 46
-0.329771 1.604897 -0.548101 237 229 218
-0.322765 1.618774 -0.551888 241 235 223
-0.31517 1.622973 -0.552799 239 233 221
-0.307816 1.633522 -0.555591 240 234 222
-0.300256 1.641185 -0.557525 241 235 223
-0.292829 1.65482 -0.561222 241 234 222
-0.285236 1.667025 -0.564492 241 234 222
-0.277415 1.674359 -0.566317 241 234 222
-0.269657 1.688446 -0.570133 242 234 222
-0.261614 1.691592 -0.570716 241 233 220
-0.253747 1.716398 -0.577684 241 233 221
-0.245582 1.727342 -0.580557 241 233 221
-0.237317 1.733766 -0.582096 240 232 221
-0.228998 1.738914 -0.583256 239 232 221
-0.220426 1.76491 -0.590545 239 231 219
-0.211997 1.764249 -0.589989 238 231 218
-0.203269 1.779235 -0.594029 238 230 218
-0.194552 1.787858 -0.596196 238 230 217
-0.185558 1.803085 -0.600295 238 230 217
-0.176331 1.82083 -0.605126 237 229 216
-0.167289 1.82929 -0.60723 237 229 216
-0.158059 1.840138 -0.61003 236 228 215
-0.148452 1.856516 -0.614442 235 227 214
-0.139432 1.858749 -0.614714 235 227 214
-0.130034 1.867049 -0.616756 236 226 214
-0.120019 1.88377 -0.621252 236 226 214
-0.110678 1.888 -0.622099 234 224 212
-0.10021 1.907108 -0.627278 234 224 213
-0.089967 1.920761 -0.63086 233 223 213
-0.079843 1.931217 -0.633507 232 222 212
-0.069235 1.945918 -0.637382 231 221 211
-0.059193 1.952733 -0.63896 230 220 209
-0.049035 1.9599 -0.640636 229 219 207
-0.037754 1.977286 -0.645274 228 218 208
-0.027648 1.981852 -0.646186 227 217 207
-0.017091 1.989898 -0.648104 223 215 204
-0.006378 1.998439 -0.650161 221 213 202
0.004964 2.011304 -0.653465 220 212 201
0.01578 2.0188 -0.65521 218 210 199
0.02637 2.023821 -0.656236 215 207 196
0.036974 2.028384 -0.657127 213 205 194
0.047727 2.033506 -0.658176 210 202 191
0.059477 2.044928 -0.661037 207 199 188
0.071048 2.054211 -0.663277 204 196 185
0.082675 2.063074 -0.66539 202 194 183
0.094144 2.070199 -0.666998 200 192 181
0.10535 2.075118 -0.667968 199 191 180
0.115753 2.074847 -0.667444 199 191 180
0.125721 2.071934 -0.66616 202 194 183
0.135679 2.068938 -0.664852 202 196 183
0.145473 2.065042 -0.663286 198 192 179
0.15478 2.058627 -0.661 195 189 175
0.164157 2.052733 -0.658864 192 186 173
0.173537 2.04699 -0.656772 185 179 167
0.182925 2.041413 -0.654728 177 169 156
0.192404 2.036389 -0.652844 194 187 172
0.201717 2.030701 -0.650771 196 189 173
0.21082 2.0242 -0.648467 180 172 156
0.220036 2.018379 -0.646359 173 164 149
0.229167 2.012351 -0.644194 170 162 146
0.238367 2.006791 -0.642163 170 161 146
0.247537 2.001273 -0.640146 170 161 144
0.256465 1.994953 -0.637903 169 160 143
0.265688 1.990025 -0.636057 169 160 143
0.27496 1.985468 -0.634318 170 161 144
0.283973 1.980113 -0.632355 171 162 146
0.292345 1.972616 -0.629789 172 163 148
0.300329 1.964039 -0.626921 172 163 148
0.308751 1.957424 -0.624611 172 163 148
0.31739 1.951916 -0.622619 174 164 149
0.325279 1.944147 -0.619992 176 164 150
0.334188 1.940256 -0.618464 175 163 149
0.342967 1.936246 -0.616905 177 165 151
0.351693 1.932408 -0.6154 178 166 152
0.359899 1.927255 -0.613529 178 166 152
0.368559 1.923966 -0.612187 178 166 152
0.377221 1.921071 -0.610961 178 166 152
0.385741 1.918136 -0.609729 178 166 152
0.393034 1.91191 -0.607581 178 166 152
-0.357889 1.568839 -0.54663 54 49 46
-0.350802 1.576073 -0.548487 54 50 47
-0.343565 1.581996 -0.549946 103 98 91
-0.336606 1.593157 -0.552985 222 215 204
-0.329697 1.606922 -0.556807 240 233 221
-0.322361 1.614937 -0.558888 241 235 223
-0.315036 1.624636 -0.561473 240 234 222
-0.30765 1.634915 -0.564231 241 235 223
-0.300223 1.646563 -0.567396 241 234 223
-0.292695 1.658305 -0.570585 240 234 222
-0.284975 1.667072 -0.572875 240 233 222
-0.277202 1.676941 -0.575493 241 233 222
-0.269315 1.685552 -0.57773 241 233 220
-0.261387 1.69674 -0.580736 240 232 219
-0.253394 1.712187 -0.585015 240 232 221
-0.245222 1.719741 -0.586923 240 232 221
-0.236977 1.734264 -0.590915 240 232 221
-0.228585 1.750504 -0.595415 239 232 219
-0.22007 1.763669 -0.598989 239 231 219
-0.211556 1.768335 -0.600018 238 231 218
-0.202755 1.785322 -0.604724 238 230 217
-0.19402 1.792922 -0.606623 237 229 216
-0.185057 1.805761 -0.61008 237 229 216
-0.176129 1.813881 -0.612126 238 230 217
-0.166793 1.830429 -0.616679 237 229 217
-0.157633 1.839189 -0.618908 236 228 215
-0.148265 1.850421 -0.621867 235 227 214
-0.139055 1.856546 -0.623305 235 227 214
-0.129309 1.87075 -0.627139 234 226 213
-0.119572 1.88251 -0.630242 235 225 213
-0.109701 1.894446 -0.633391 232 224 213
-0.099659 1.907023 -0.636726 233 223 213
-0.08906 1.925069 -0.641676 232 222 212
-0.078855 1.936056 -0.644528 231 221 211
-0.068776 1.944223 -0.646541 229 220 209
-0.058657 1.951799 -0.648376 229 219 207
-0.047898 1.965065 -0.651888 228 218 207
-0.036962 1.978629 -0.655482 227 217 207
-0.026748 1.984005 -0.656655 225 216 206
-0.016283 1.990995 -0.658301 223 215 204
-0.00577 1.997626 -0.659838 220 212 201
0.00516 2.006981 -0.662173 218 210 199
0.015882 2.013771 -0.663749 217 209 198
0.0264 2.01831 -0.66466 214 206 195
0.036853 2.021856 -0.665277 211 203 192
0.047722 2.027912 -0.666628 209 201 190
0.060545 2.046747 -0.671723 205 197 186
0.071961 2.054836 -0.67366 201 193 182
0.083351 2.06204 -0.675334 200 192 181
0.094684 2.068251 -0.676713 199 191 180
0.105899 2.073183 -0.677715 198 190 179
0.116307 2.072914 -0.677193 193 185 174
0.126524 2.071393 -0.676306 186 179 168
0.136389 2.067822 -0.674819 170 163 153
0.146088 2.06338 -0.67308 43 36 26
0.155391 2.056925 -0.670754 38 32 21
0.165056 2.052481 -0.669016 36 30 18
0.174422 2.046613 -0.666864 41 35 23
0.183743 2.040659 -0.664689 166 158 145
0.193038 2.03473 -0.662522 193 186 170
0.202324 2.0289 -0.660385 194 186 171
0.211332 2.021962 -0.657929 178 169 154
0.220762 2.01708 -0.656071 170 161 146
0.23005 2.011706 -0.654071 169 160 145
0.239338 2.006476 -0.652114 168 159 143
0.248571 2.001175 -0.650138 167 158 141
0.257601 1.995224 -0.647976 167 158 141
0.266311 1.988222 -0.645513 168 159 142
0.275278 1.982475 -0.643414 169 160 143
0.284265 1.977042 -0.641409 168 159 144
0.292724 1.969886 -0.638909 170 161 146
0.300566 1.960813 -0.635861 171 162 147
0.309184 1.954919 -0.633732 172 162 148
0.318352 1.951271 -0.632251 174 162 148
0.326813 1.945447 -0.630148 174 162 148
0.334953 1.938897 -0.62784 175 163 149
0.343713 1.934811 -0.626243 175 163 149
0.352637 1.931609 -0.624903 176 164 150
0.3601 1.92405 -0.62232 176 164 150
0.368697 1.920577 -0.62091 176 164 150
0.377363 1.917716 -0.61968 177 165 151
0.386731 1.917401 -0.619181 177 165 151
0.39478 1.913442 -0.617646 177 165 151
-0.357766 1.569144 -0.554684 228 221 212
-0.350788 1.578088 -0.557098 231 224 214
-0.343994 1.590936 -0.560708 232 226 214
-0.336644 1.596676 -0.56213 234 228 216
-0.329275 1.602928 -0.563707 237 231 219
-0.322058 1.613051 -0.56647 240 234 222
-0.314846 1.625189 -0.569846 240 233 222
-0.30724 1.63067 -0.571179 241 234 222
-0.300032 1.647871 -0.576098 240 234 222
-0.292432 1.658039 -0.578858 239 233 221
-0.284614 1.663724 -0.580244 240 232 221
-0.276988 1.679721 -0.584779 240 233 221
-0.269036 1.686157 -0.586388 241 233 220
-0.261075 1.696159 -0.589083 240 232 220
-0.253054 1.709659 -0.59284 239 231 219
-0.244873 1.715312 -0.594202 240 232 219
-0.236629 1.738993 -0.601051 239 231 218
-0.22826 1.744219 -0.602275 239 231 218
-0.219716 1.761798 -0.607253 238 230 217
-0.211194 1.76678 -0.608397 238 230 217
-0.202513 1.777311 -0.611224 238 230 218
-0.193502 1.797099 -0.616855 237 229 216
-0.184579 1.807436 -0.619613 237 229 216
-0.175631 1.815507 -0.621681 237 229 216
-0.166412 1.828421 -0.625211 237 229 217
-0.157058 1.841508 -0.628789 236 228 216
-0.147724 1.851496 -0.631425 235 227 214
-0.138523 1.857104 -0.632733 234 226 214
-0.128433 1.876879 -0.638316 233 225 212
-0.1188 1.886274 -0.64076 235 225 214
-0.1091 1.895202 -0.643058 232 224 213
-0.099281 1.904436 -0.645446 230 222 211
-0.088816 1.920686 -0.649942 230 222 211
-0.078295 1.93556 -0.654018 229 220 209
-0.068311 1.942493 -0.655699 228 220 207
-0.058146 1.950493 -0.657698 227 219 206
-0.047674 1.960688 -0.660353 227 218 208
-0.036426 1.977352 -0.664944 226 217 206
-0.025926 1.985315 -0.666919 223 214 203
-0.015529 1.991499 -0.668358 220 212 201
-0.004984 1.998239 -0.66996 219 211 200
0.005834 2.006514 -0.672018 217 209 198
0.01612 2.009742 -0.672564 214 206 195
0.026454 2.012924 -0.673093 213 205 194
0.037612 2.021716 -0.675297 209 201 190
0.049261 2.033174 -0.678291 207 199 188
0.06072 2.042367 -0.680605 204 196 185
0.072682 2.054085 -0.683667 200 192 181
0.084209 2.062075 -0.685614 197 189 178
0.095348 2.066977 -0.686637 197 189 178
0.106253 2.069984 -0.687094 196 188 177
0.116948 2.071398 -0.687076 188 180 169
0.1271 2.06947 -0.686063 166 160 148
0.13687 2.065359 -0.684404 52 45 35
0.146348 2.059729 -0.682294 75 68 58
0.156164 2.055983 -0.680745 165 158 147
0.165444 2.049542 -0.678398 185 179 167
0.174967 2.044462 -0.676456 132 126 114
0.184023 2.037231 -0.673878 164 158 144
0.193505 2.032204 -0.671955 191 183 170
0.202706 2.025989 -0.669682 189 181 168
0.21238 2.022054 -0.668083 173 164 149
0.221476 2.01565 -0.665757 168 159 144
0.230762 2.010245 -0.663728 167 158 143
0.239685 2.003471 -0.661297 165 156 141
0.248956 1.998338 -0.659351 166 157 142
0.258056 1.992682 -0.657253 166 157 141
0.266884 1.986152 -0.654899 166 157 140
0.275389 1.978628 -0.652257 166 157 140
0.284244 1.972726 -0.650093 167 158 143
0.293428 1.968301 -0.648364 169 160 145
0.301777 1.961064 -0.645814 169 160 145
0.310179 1.954361 -0.643423 170 161 146
0.319388 1.950822 -0.641961 173 161 147
0.328304 1.946536 -0.640282 174 162 147
0.336519 1.94019 -0.638004 174 162 148
0.344999 1.935118 -0.636102 175 163 149
0.353207 1.929542 -0.634056 174 162 148
0.360904 1.922743 -0.631657 174 162 148
0.369479 1.919193 -0.630209 175 163 149
0.378317 1.916854 -0.629116 176 164 150
0.387027 1.914508 -0.628025 176 164 150
0.398679 1.921425 -0.629627 176 164 150
-0.364581 1.560841 -0.560413 226 219 209
-0.357672 1.569861 -0.562893 232 225 215
-0.350647 1.578361 -0.565206 235 228 218
-0.343824 1.59097 -0.5688 237 230 220
-0.336506 1.597412 -0.570464 238 232 220
-0.329116 1.603561 -0.572033 239 233 221
-0.321959 1.615124 -0.57529 240 234 222
-0.314705 1.626857 -0.578595 241 233 222
-0.307329 1.6382 -0.581774 240 234 222
-0.299735 1.646491 -0.583999 241 235 223
-0.292029 1.65359 -0.58585 239 233 221
-0.28428 1.661397 -0.587919 240 233 221
-0.276718 1.680262 -0.59342 239 233 221
-0.268782 1.688383 -0.595579 240 232 220
-0.260783 1.697301 -0.597982 239 231 220
-0.252744 1.710998 -0.601863 239 231 218
-0.244603 1.731463 -0.607835 239 231 218
-0.23628 1.73806 -0.609506 239 231 218
-0.227895 1.744631 -0.611167 239 231 218
-0.219421 1.753926 -0.613668 238 230 217
-0.210787 1.767827 -0.617588 238 230 218
