ply
format ascii 1.0
comment ---
element vertex 1228
property float x
property float y
property float z
property uchar red
property uchar green
property uchar blue
element face 0
property list uchar uint vertex_indices
end_header
0.457524 1.869453 0.137466 122 115 99
0.463383 1.854701 0.136498 122 115 99
0.470201 1.844236 0.135773 122 115 99
0.477711 1.836761 0.13522 122 115 99
0.485797 1.83166 0.134805 121 114 98
0.493454 1.825014 0.13432 121 113 98
0.501204 1.818838 0.13387 122 114 98
0.508399 1.810747 0.13333 121 113 97
0.516134 1.804751 0.132913 121 113 97
0.523948 1.799117 0.132527 121 113 97
0.531337 1.792093 0.132077 120 113 97
0.539419 1.787531 0.13177 120 112 96
0.548369 1.785882 0.131628 119 112 96
0.557589 1.785047 0.131539 119 112 96
0.563859 1.774632 0.130953 119 111 96
0.560636 1.734422 0.128797 119 111 95
0.579099 1.762838 0.13029 118 111 95
0.582985 1.745613 0.129373 118 111 95
0.585581 1.72492 0.128281 118 110 95
0.592002 1.716096 0.127827 117 110 94
0.599661 1.711044 0.127582 117 110 94
0.605009 1.699386 0.126994 116 109 93
0.605668 1.674689 0.12572 116 109 93
0.611544 1.665177 0.125259 116 109 93
0.623166 1.671637 0.125651 116 109 93
0.632803 1.672434 0.125749 115 108 92
0.639374 1.664928 0.125409 115 108 92
0.644672 1.654198 0.1249 114 107 91
0.651993 1.648936 0.124685 114 107 91
0.657962 1.640287 0.124289 114 107 91
0.665209 1.635031 0.124074 115 106 91
0.670138 1.62409 0.123554 116 107 92
0.676149 1.616047 0.123185 115 106 91
0.683014 1.610242 0.122931 114 106 90
0.690052 1.604973 0.122699 113 106 90
0.696656 1.598792 0.122411 112 105 89
0.70283 1.591759 0.122067 112 105 89
0.708501 1.583745 0.121659 113 106 90
0.7152 1.57828 0.121375 113 106 90
0.722777 1.574941 0.121188 112 106 90
0.729448 1.569714 0.120883 112 105 89
0.734084 1.56021 0.12033 112 105 89
0.741266 1.556499 0.120067 112 105 89
0.746497 1.548782 0.119566 112 105 89
0.753967 1.546058 0.119307 112 105 89
0.761787 1.544231 0.119068 111 104 88
0.766122 1.535359 0.118427 112 105 89
0.770861 1.527633 0.117818 111 104 88
0.773591 1.516147 0.11698 111 104 88
0.779846 1.512102 0.116504 110 103 86
0.78995 1.515915 0.116408 110 103 87
0.798344 1.516468 0.116104 110 103 87
0.805099 1.514003 0.115607 111 104 88
0.811637 1.511351 0.115063 109 103 87
0.817669 1.507974 0.114447 107 101 85
0.822451 1.502496 0.113686 106 100 84
0.826534 1.496008 0.112841 106 99 83
0.831021 1.490582 0.112016 104 97 81
-0.653755 1.062523 0.15977 161 154 144
-0.650118 1.065863 0.159901 161 154 144
-0.648824 1.073563 0.160481 161 154 144
-0.644635 1.076349 0.160473 160 153 142
-0.640991 1.080303 0.160556 161 155 143
-0.637559 1.084848 0.160665 160 154 142
-0.633609 1.088651 0.160654 161 155 143
-0.629641 1.092615 0.160622 161 155 143
-0.625415 1.096289 0.160521 162 156 144
-0.621526 1.100787 0.160474 161 155 143
-0.620311 1.110616 0.16097 161 155 143
-0.614776 1.112362 0.160552 160 154 142
-0.610224 1.116158 0.160324 160 154 142
-0.605245 1.119269 0.159993 162 156 144
-0.601164 1.12432 0.159839 161 155 143
-0.598149 1.131708 0.159903 162 156 144
-0.593863 1.136704 0.159686 161 155 143
-0.589092 1.140854 0.159356 161 155 143
-0.585825 1.14829 0.159344 161 155 143
-0.580719 1.152016 0.158926 161 155 143
-0.574678 1.153833 0.158295 161 155 143
-0.572405 1.163906 0.158491 162 156 144
-0.567936 1.169381 0.1582 162 156 144
-0.562782 1.173451 0.157753 162 156 144
-0.556864 1.175871 0.157132 162 156 144
-0.552753 1.182466 0.156917 162 156 144
-0.547826 1.187302 0.156519 163 157 145
-0.543631 1.193944 0.15629 163 157 145
-0.540142 1.202396 0.156229 163 157 145
-0.534595 1.206047 0.155697 163 157 145
-0.529069 1.209788 0.155171 163 157 145
-0.525837 1.219262 0.15519 164 158 146
-0.520373 1.223312 0.15469 165 159 147
-0.515293 1.228379 0.154287 164 158 146
-0.509873 1.232636 0.153809 164 158 146
-0.504997 1.23836 0.153468 164 158 146
-0.499957 1.243731 0.153096 165 159 147
-0.495355 1.250358 0.152841 166 160 148
-0.491246 1.258441 0.152718 166 160 148
-0.485716 1.262726 0.152254 165 159 147
-0.480499 1.267933 0.151878 165 159 147
-0.475967 1.275172 0.151684 166 160 148
-0.471099 1.281562 0.151419 166 160 148
-0.465904 1.287091 0.151081 167 161 149
-0.46086 1.293153 0.150795 167 161 149
-0.455958 1.299747 0.150557 167 161 149
-0.450803 1.305677 0.150267 167 161 149
-0.445588 1.311514 0.149974 167 161 149
-0.440739 1.318622 0.149791 167 161 149
-0.435276 1.323875 0.149458 167 161 149
-0.429803 1.329179 0.149134 167 161 149
-0.424504 1.335158 0.14887 168 162 150
-0.419581 1.342537 0.148727 168 162 150
-0.414399 1.349183 0.148526 168 161 150
-0.408613 1.353833 0.148169 168 162 150
-0.403275 1.360174 0.147953 168 162 150
-0.39761 1.365459 0.147657 168 162 150
-0.391775 1.370216 0.147324 168 162 150
-0.38647 1.377083 0.147163 169 163 151
-0.381662 1.386062 0.147171 168 162 150
-0.375809 1.391161 0.146879 167 161 149
-0.369627 1.395049 0.146497 168 162 150
-0.363149 1.397787 0.146033 168 162 150
-0.357331 1.403332 0.145791 169 163 151
-0.353022 1.415505 0.146057 169 163 151
-0.350273 1.434965 0.146874 168 162 150
-0.345787 1.447402 0.147153 169 163 151
-0.340711 1.457601 0.147264 169 163 151
-0.33239 1.45298 0.146272 169 163 151
-0.324163 1.448513 0.145304 169 163 151
-0.318051 1.454138 0.14509 168 162 150
-0.312751 1.464036 0.145192 169 163 151
-0.306767 1.470821 0.145067 169 163 151
-0.301018 1.479117 0.145054 170 162 151
-0.295253 1.487675 0.145061 169 163 151
-0.28939 1.496073 0.145058 171 163 152
-0.283654 1.505571 0.145133 171 163 152
-0.277501 1.513084 0.145068 171 163 152
-0.271618 1.522581 0.145144 170 162 151
-0.265123 1.528762 0.144987 171 163 152
-0.258711 1.53578 0.144891 171 163 152
-0.252585 1.545049 0.144952 171 163 152
-0.24597 1.551515 0.144819 170 162 151
-0.238805 1.554465 0.144447 171 163 152
-0.234133 1.575678 0.145326 170 162 151
-0.227458 1.58325 0.145269 170 163 151
-0.220526 1.589291 0.14511 169 162 151
-0.213807 1.597454 0.145095 170 163 151
-0.20636 1.600071 0.144709 170 162 151
-0.197828 1.593328 0.143705 169 162 151
-0.193234 1.6219 0.145048 168 162 150
-0.187981 1.646653 0.146126 169 163 151
-0.180914 1.655553 0.146154 170 162 151
-0.172923 1.655579 0.145603 171 163 152
-0.165715 1.664153 0.145611 170 162 151
-0.160311 1.694483 0.147025 170 162 151
-0.152903 1.703652 0.147064 169 161 150
-0.145694 1.716455 0.147335 169 161 150
-0.138521 1.731307 0.147733 169 161 150
-0.130947 1.742212 0.147876 169 161 150
-0.122345 1.738375 0.147088 169 161 150
-0.115284 1.760182 0.147917 169 161 150
-0.107139 1.765568 0.147711 168 160 149
-0.099029 1.772582 0.147608 168 160 149
-0.090863 1.779732 0.147514 168 160 149
-0.082942 1.794587 0.147894 168 160 149
-0.07466 1.803034 0.147878 168 160 149
-0.066511 1.818227 0.148273 168 160 149
-0.058221 1.833333 0.148658 168 160 149
-0.049636 1.841166 0.148599 168 160 149
-0.040798 1.838216 0.147892 167 159 148
-0.031843 1.823473 0.146484 167 159 148
-0.023412 1.858666 0.148065 167 159 148
-0.014583 1.870205 0.148228 166 158 147
-0.005653 1.878498 0.148198 166 158 147
0.003363 1.888414 0.148262 166 158 147
0.012539 1.904811 0.148706 166 158 147
0.021802 1.916941 0.148896 166 158 147
0.031145 1.927428 0.148989 165 157 146
0.040581 1.937759 0.149072 165 157 146
0.050008 1.944454 0.148946 166 158 147
0.059521 1.951848 0.14886 166 158 147
0.06919 1.961459 0.148902 165 157 146
0.078661 1.964371 0.148564 165 157 146
0.088255 1.969226 0.148338 164 156 145
0.098033 1.976717 0.148264 164 157 145
0.107989 1.98605 0.148294 164 157 145
0.117696 1.989881 0.148018 164 157 145
0.127335 1.99207 0.147653 164 156 145
0.13713 1.996139 0.147397 163 156 145
0.147374 2.005598 0.147441 163 155 144
0.157558 2.013152 0.147381 164 156 145
0.167845 2.021021 0.147341 164 156 145
0.178055 2.027154 0.147208 164 155 145
0.187739 2.026994 0.146738 165 157 146
0.197204 2.024559 0.14615 157 149 137
0.207005 2.025529 0.145753 132 124 109
0.216385 2.022431 0.145143 132 123 106
0.225815 2.019963 0.144574 130 121 104
0.234801 2.013814 0.143818 128 119 102
0.243876 2.008799 0.143129 128 119 102
0.25285 2.00327 0.142423 128 119 102
0.261824 1.99805 0.141742 128 119 102
0.270744 1.992718 0.141063 127 118 101
0.279634 1.987434 0.140396 128 119 102
0.288424 1.981729 0.139716 127 118 101
0.297158 1.975909 0.13904 127 118 101
0.306165 1.97213 0.138478 127 118 101
0.314911 1.966846 0.137847 127 118 101
0.322709 1.955989 0.136941 127 118 101
0.331009 1.948619 0.136223 126 117 100
0.339355 1.941829 0.135546 127 118 101
0.347843 1.936105 0.134933 126 117 100
0.355981 1.928663 0.134243 126 117 102
0.364982 1.926103 0.13381 125 116 99
0.374007 1.923692 0.133393 125 116 99
0.382354 1.917858 0.132814 126 117 99
0.390496 1.911183 0.132203 124 115 99
0.399118 1.907036 0.13173 123 115 99
0.407794 1.903229 0.131283 124 116 101
0.415521 1.895094 0.130631 124 116 100
0.423595 1.888775 0.130081 124 115 100
0.430872 1.879093 0.129376 123 114 99
0.439518 1.875635 0.128988 123 114 99
0.448456 1.873443 0.128674 123 114 99
0.456852 1.868977 0.128258 122 115 99
0.459733 1.842111 0.126757 122 115 99
0.468544 1.839859 0.126473 121 114 98
0.477266 1.837226 0.126181 122 115 99
0.485573 1.832983 0.125822 123 114 99
0.493109 1.825869 0.125333 122 113 98
0.500651 1.818923 0.124864 122 113 98
0.508394 1.812835 0.124448 121 113 98
0.517425 1.811437 0.124271 121 113 97
0.523321 1.798978 0.123568 120 113 97
0.530665 1.791813 0.123134 120 112 96
0.538672 1.787016 0.122824 119 112 96
0.548566 1.788533 0.12283 119 112 96
0.553706 1.774326 0.122088 119 111 96
0.560469 1.76568 0.121625 119 111 96
0.565821 1.752732 0.120965 118 111 95
0.572939 1.745573 0.120594 118 111 95
0.579959 1.73822 0.120223 118 110 95
0.585094 1.725294 0.119593 117 110 94
0.591583 1.716671 0.119179 117 110 94
0.599897 1.713529 0.119038 116 109 93
0.607236 1.707562 0.118769 116 109 93
0.608504 1.684453 0.117681 116 109 93
0.609433 1.660973 0.116581 116 109 93
0.624666 1.67744 0.117413 116 109 93
0.632779 1.674024 0.117292 116 109 93
0.63693 1.660017 0.116664 115 108 92
0.643187 1.651868 0.116323 115 108 92
0.652362 1.651443 0.116357 115 108 92
0.658912 1.644226 0.116064 115 108 92
0.664022 1.633498 0.115602 115 107 92
0.668438 1.621272 0.115066 114 107 91
0.67581 1.616582 0.114892 114 107 91
0.682622 1.610611 0.114652 115 107 91
0.689601 1.605162 0.114432 113 106 90
0.696907 1.600597 0.114249 113 106 90
0.70278 1.592793 0.113899 114 107 91
0.706815 1.580955 0.113342 113 106 90
0.714008 1.576595 0.113137 111 105 89
0.721603 1.573262 0.112967 111 105 89
0.728095 1.567598 0.112668 111 105 89
0.734402 1.56171 0.11234 112 105 89
0.739649 1.553727 0.111891 112 105 89
0.745793 1.54792 0.111525 112 105 89
0.754439 1.547616 0.111403 111 104 88
0.760701 1.542437 0.111019 111 104 88
0.766941 1.537436 0.110616 111 104 88
0.770304 1.526789 0.109914 111 104 88
0.776964 1.523168 0.10952 111 104 88
0.784145 1.520811 0.109156 110 104 88
0.79012 1.516271 0.108654 111 104 86
0.79732 1.514387 0.108246 111 104 88
0.804763 1.513183 0.107834 111 104 88
0.809617 1.50721 0.107164 109 102 86
0.812979 1.498698 0.106341 107 101 84
0.81929 1.496096 0.10576 106 99 82
0.825757 1.494031 0.105169 103 96 78
0.829523 1.487198 0.104324 103 96 79
-0.655465 1.063921 0.154426 160 153 143
-0.653368 1.07004 0.154822 161 154 144
-0.650363 1.074795 0.155033 161 154 143
-0.644608 1.074843 0.154704 161 154 144
-0.641118 1.079122 0.154787 160 154 143
-0.638304 1.084843 0.154985 160 153 143
-0.634424 1.088836 0.154961 161 154 144
-0.629503 1.091087 0.154717 161 155 143
-0.62593 1.096033 0.154719 162 156 144
-0.622688 1.101815 0.154772 161 155 143
-0.618019 1.105078 0.154528 161 155 143
-0.615405 1.112487 0.154678 161 155 143
-0.610472 1.115594 0.154352 162 156 144
-0.606319 1.120389 0.154169 161 155 143
-0.60301 1.127049 0.154146 161 155 143
-0.600103 1.13473 0.154196 161 155 143
-0.59534 1.138829 0.153858 161 155 143
-0.589949 1.141757 0.153381 161 155 143
-0.585018 1.145749 0.152989 161 155 143
-0.581391 1.152624 0.152862 161 155 143
-0.576566 1.157099 0.15248 162 156 144
-0.571793 1.161796 0.152105 162 156 144
-0.566445 1.165332 0.151604 162 156 144
-0.563436 1.174162 0.151597 161 155 143
-0.558639 1.179151 0.15121 162 156 144
-0.553663 1.183822 0.150784 162 156 144
-0.547392 1.185575 0.150079 163 157 145
-0.543954 1.193983 0.149988 163 157 145
-0.539524 1.200201 0.149686 163 157 145
-0.534584 1.205299 0.149277 164 158 146
-0.529133 1.209219 0.148758 163 157 145
-0.525378 1.217389 0.148621 163 157 145
-0.520091 1.221858 0.148149 164 158 146
-0.515893 1.229156 0.147928 164 158 146
-0.510935 1.234616 0.147544 164 158 146
-0.505518 1.238947 0.147063 164 158 146
-0.500156 1.243465 0.146601 165 159 147
-0.494941 1.248425 0.14618 165 159 147
-0.490017 1.25424 0.145836 164 158 146
-0.485518 1.261319 0.145601 165 159 147
-0.480516 1.267102 0.145259 166 160 148
-0.476133 1.274743 0.145075 166 160 148
-0.471588 1.282052 0.144865 165 159 147
-0.466493 1.287874 0.144536 167 161 149
-0.46102 1.292646 0.144125 167 161 149
-0.456403 1.300089 0.143935 166 160 148
-0.45133 1.306262 0.143646 166 160 148
-0.446316 1.312727 0.143385 167 161 149
-0.440755 1.317563 0.142999 167 161 149
-0.435265 1.322696 0.142641 168 162 150
-0.429759 1.327854 0.142291 168 162 150
-0.424593 1.334243 0.142042 168 162 150
-0.41934 1.340459 0.141784 167 161 149
-0.414587 1.348543 0.141673 167 161 149
-0.409182 1.354516 0.141404 168 162 150
-0.4033 1.358895 0.141019 168 162 150
-0.397801 1.36475 0.14075 168 162 150
-0.392242 1.370508 0.140479 167 161 149
-0.386772 1.376734 0.140248 168 162 150
-0.381677 1.384571 0.140138 168 162 150
-0.375918 1.389999 0.139855 168 162 150
-0.369658 1.393534 0.139439 168 162 150
-0.363648 1.398157 0.139107 169 162 150
-0.358086 1.404769 0.138924 169 162 150
-0.354703 1.420928 0.139425 169 163 151
-0.350485 1.434028 0.139703 169 163 151
-0.345612 1.444685 0.139807 169 163 151
-0.341791 1.460549 0.140275 169 163 151
-0.33463 1.461418 0.139694 169 163 151
-0.325055 1.450699 0.138318 169 163 151
-0.318688 1.455106 0.138 170 163 152
-0.312666 1.461384 0.137815 170 163 152
-0.307838 1.474034 0.138065 170 163 152
-0.302169 1.482815 0.138052 170 163 152
-0.296187 1.490277 0.13795 170 163 152
-0.289582 1.494611 0.13764 170 163 152
-0.283578 1.502527 0.137573 170 163 152
-0.277656 1.511287 0.137562 171 163 152
-0.271395 1.518439 0.137446 171 163 152
-0.265769 1.529878 0.137611 171 163 152
-0.258825 1.533514 0.137268 170 162 151
-0.252579 1.541906 0.137235 171 163 152
-0.246379 1.551078 0.137253 171 163 152
-0.240046 1.559854 0.137245 171 163 152
-0.2343 1.573413 0.137541 171 163 152
-0.227706 1.581496 0.137487 171 163 152
-0.220894 1.588402 0.137359 170 162 151
-0.213888 1.594201 0.137163 170 162 151
-0.205887 1.592041 0.136473 170 162 151
-0.197557 1.586759 0.135597 170 162 151
-0.19342 1.619148 0.137049 170 162 151
-0.188654 1.648352 0.138289 170 162 151
-0.181734 1.658779 0.138372 170 162 151
-0.174685 1.668794 0.138429 170 162 151
-0.168948 1.694154 0.139408 170 162 151
-0.161676 1.704436 0.139473 170 162 151
-0.153928 1.71001 0.139255 170 162 151
-0.146233 1.716872 0.139115 169 161 150
-0.139114 1.732476 0.139491 169 161 150
-0.131236 1.738977 0.139328 169 161 150
-0.122991 1.740575 0.138879 169 161 150
-0.115835 1.760866 0.13952 169 161 150
-0.107493 1.762669 0.139084 168 160 149
-0.099568 1.77315 0.139151 168 160 149
-0.091342 1.779025 0.138953 168 160 149
-0.08353 1.796446 0.139412 168 160 149
-0.07529 1.806285 0.139437 168 160 149
-0.066954 1.815916 0.139448 168 160 149
-0.058834 1.836957 0.140098 167 159 148
-0.050178 1.842291 0.139864 167 159 148
-0.041419 1.844402 0.139452 167 159 148
-0.032217 1.812878 0.137183 167 159 148
-0.023661 1.82545 0.137361 167 159 148
-0.015119 1.87597 0.139614 167 159 148
-0.006158 1.888417 0.13977 167 159 148
0.002935 1.90372 0.140078 166 158 147
0.012156 1.91788 0.140321 166 158 147
0.021388 1.924011 0.140129 166 158 147
0.030687 1.930677 0.139968 165 157 146
0.04008 1.938629 0.139875 165 157 146
0.049565 1.947174 0.139814 165 157 146
0.059041 1.95307 0.139614 166 158 147
0.068822 1.965521 0.139759 165 157 146
0.078259 1.967155 0.139338 165 157 146
0.087849 1.971658 0.139069 164 156 146
0.097562 1.977659 0.138881 164 156 146
0.107608 1.988544 0.138945 164 156 146
0.117313 1.992135 0.138636 164 156 145
0.126749 1.991081 0.138093 164 156 145
0.136741 1.997992 0.137959 163 155 144
0.146826 2.005239 0.137845 163 156 144
0.156949 2.012051 0.13771 163 156 144
0.167166 2.019167 0.137593 163 157 145
0.177231 2.023776 0.137352 163 156 146
0.187064 2.025372 0.136967 166 158 147
0.196687 2.024609 0.136469 163 155 143
0.206265 2.0234 0.135956 133 125 110
0.216033 2.024001 0.135538 131 122 105
0.225324 2.020217 0.134912 130 121 104
0.234371 2.014573 0.134203 129 120 103
0.243324 2.00851 0.133483 128 119 102
0.252613 2.005485 0.132917 128 119 102
0.261757 2.001483 0.132312 129 120 103
0.270661 1.995906 0.131641 128 119 102
0.279275 1.988546 0.130893 128 119 102
0.287708 1.980333 0.130115 127 118 101
0.296259 1.973335 0.129404 127 118 101
0.304984 1.967809 0.128772 127 118 101
0.31363 1.962022 0.128137 126 117 100
0.322305 1.956657 0.127531 126 117 101
0.331596 1.95516 0.127113 126 117 101
0.340464 1.95121 0.126591 126 117 101
0.345732 1.927132 0.12515 126 117 101
0.355004 1.926137 0.124784 126 117 101
0.364306 1.925256 0.124432 125 116 101
0.373579 1.92417 0.124079 126 117 100
0.382356 1.920523 0.123619 125 116 99
0.390299 1.912803 0.122983 124 115 99
0.398865 1.908359 0.122506 126 116 102
0.407279 1.903294 0.122011 126 116 102
0.41482 1.894306 0.121351 124 115 100
0.422249 1.885094 0.120691 124 115 100
0.430508 1.879847 0.12022 123 114 99
0.438696 1.874403 0.119751 123 114 99
0.447184 1.870344 0.119354 124 115 100
0.455207 1.864402 0.118884 123 114 99
0.461377 1.851026 0.118096 122 115 99
0.468533 1.842001 0.117513 122 114 99
0.477488 1.840256 0.117262 123 114 99
0.485083 1.833235 0.116788 122 113 98
0.492571 1.82595 0.116315 122 113 98
0.500575 1.820723 0.115943 122 113 98
0.508639 1.815783 0.115595 121 112 97
0.515176 1.805445 0.115021 120 112 97
0.522792 1.799132 0.114635 119 112 96
0.52986 1.791027 0.114181 119 112 96
0.5372 1.783996 0.113786 119 111 96
0.546205 1.782627 0.113646 119 111 95
0.552404 1.771987 0.113115 119 111 95
0.559737 1.765227 0.112763 119 111 95
0.567521 1.759993 0.112487 118 111 95
0.572017 1.744554 0.111779 118 110 95
0.579609 1.73898 0.111508 117 110 94
0.586281 1.730682 0.111129 117 110 94
0.591948 1.719534 0.110635 116 109 93
0.599343 1.713669 0.110379 116 109 93
0.60883 1.713894 0.110394 116 109 93
0.613031 1.698995 0.109762 116 108 93
0.606261 1.653759 0.107823 115 108 92
0.620481 1.667563 0.108448 115 108 92
0.630405 1.669203 0.108551 116 109 93
0.636626 1.660791 0.108223 115 108 92
0.64354 1.654352 0.107985 115 108 92
0.649424 1.645328 0.107638 115 108 92
0.656351 1.639145 0.107416 114 107 91
0.66353 1.633697 0.107227 115 108 92
0.670325 1.627371 0.106999 114 107 91
0.675627 1.617486 0.106614 113 106 90
0.682583 1.611824 0.106411 114 106 91
0.689389 1.605909 0.106191 113 106 90
0.696598 1.601071 0.106013 112 105 89
0.703626 1.595912 0.105813 113 106 90
0.707014 1.582495 0.105243 112 105 89
0.714467 1.578657 0.105079 112 105 89
0.721408 1.573779 0.104857 112 106 90
0.728157 1.568621 0.104608 111 105 89
0.734391 1.562498 0.1043 112 105 89
0.740731 1.556804 0.103992 112 105 89
0.747169 1.551518 0.103682 111 104 88
0.75419 1.547666 0.103411 111 104 88
0.76121 1.543992 0.103124 112 105 89
0.766372 1.536667 0.102653 111 104 88
0.771916 1.530401 0.1022 112 105 89
0.779737 1.529004 0.101929 111 104 88
0.785358 1.523377 0.101445 111 104 87
0.790377 1.516827 0.100891 112 105 89
0.796448 1.512634 0.100406 110 103 87
0.803841 1.511259 0.100008 110 103 87
0.809425 1.506616 0.099437 107 101 85
0.812802 1.498048 0.098668 107 101 83
0.819029 1.495203 0.098106 105 98 80
0.824996 1.49212 0.097499 102 95 77
0.833059 1.493174 0.097027 100 93 77
-0.656857 1.064783 0.148998 161 154 144
-0.654768 1.070976 0.149355 161 154 143
-0.649553 1.071875 0.149135 161 155 144
-0.644023 1.072365 0.148836 161 154 144
-0.641253 1.077978 0.14902 161 154 144
-0.638655 1.084139 0.149221 161 154 144
-0.634734 1.088107 0.149162 161 155 144
-0.630957 1.09254 0.149113 161 155 144
-0.626715 1.0963 0.148961 161 155 143
-0.622305 1.099924 0.14876 161 155 143
-0.61762 1.103193 0.148492 162 156 144
-0.613951 1.10859 0.1484 161 155 143
-0.611741 1.11704 0.148574 161 155 144
-0.607204 1.121142 0.148293 162 156 144
-0.602775 1.125612 0.14802 161 155 144
-0.600565 1.134734 0.148165 162 156 144
-0.595855 1.138983 0.147818 161 155 143
-0.590098 1.141197 0.147256 161 155 143
-0.58432 1.143441 0.146681 160 154 142
-0.581051 1.151081 0.146592 161 155 143
-0.576846 1.156899 0.146314 161 155 143
-0.571913 1.161274 0.145887 161 155 143
-0.566907 1.165583 0.145442 161 155 143
-0.564154 1.175008 0.145448 161 155 143
-0.558851 1.178882 0.144941 162 156 144
-0.554637 1.185312 0.144654 162 156 144
-0.549316 1.189302 0.144143 162 156 144
-0.544022 1.193409 0.143637 163 157 145
-0.538979 1.198168 0.143186 163 157 145
-0.534074 1.203329 0.142766 163 157 145
-0.530902 1.212801 0.142712 162 156 144
-0.525392 1.216671 0.142176 163 157 145
-0.519855 1.220504 0.141638 163 157 145
-0.515824 1.228205 0.141426 163 157 145
-0.510788 1.233447 0.141007 164 158 146
-0.505545 1.238212 0.140551 164 158 146
-0.500362 1.243192 0.140115 164 158 146
-0.495138 1.248118 0.139678 165 159 147
-0.490271 1.254075 0.139327 164 158 146
-0.485361 1.260002 0.138977 165 159 147
-0.480047 1.264874 0.138546 165 159 147
-0.475919 1.273199 0.138391 165 159 147
-0.472478 1.28368 0.138405 166 160 148
-0.465075 1.282704 0.137531 166 160 148
-0.461771 1.293886 0.137602 167 160 148
-0.45659 1.299614 0.137257 166 160 148
-0.451134 1.30458 0.136858 166 160 148
-0.445661 1.30956 0.136465 167 161 149
-0.440747 1.316397 0.136217 167 161 149
-0.435299 1.321632 0.135853 166 160 148
-0.430043 1.327585 0.135548 169 161 150
-0.424724 1.333437 0.135239 167 161 149
-0.419726 1.340496 0.135022 167 161 149
-0.414165 1.345758 0.13468 168 162 150
-0.409446 1.354091 0.134562 168 162 150
-0.403903 1.359667 0.13425 167 161 149
-0.39803 1.364147 0.133867 167 161 149
-0.392882 1.371416 0.133683 168 162 150
-0.387575 1.378265 0.133474 168 162 150
-0.381903 1.383876 0.133182 169 163 151
-0.375855 1.38813 0.132802 168 162 150
-0.369827 1.392549 0.132438 168 162 150
-0.364025 1.397996 0.132149 168 162 150
-0.359268 1.407968 0.132168 168 162 150
-0.353886 1.415597 0.132031 169 163 151
-0.34982 1.429229 0.132293 169 163 151
-0.34224 1.427658 0.131552 169 163 151
-0.337866 1.440588 0.131768 169 163 151
-0.332506 1.449416 0.131716 169 163 151
-0.32514 1.448987 0.131067 170 163 151
-0.318573 1.452366 0.13067 170 164 152
-0.312478 1.4582 0.130435 170 164 152
-0.307492 1.469939 0.130576 170 164 152
-0.302702 1.483221 0.130813 170 163 152
-0.296474 1.48935 0.130599 170 163 152
-0.290193 1.495442 0.130385 170 163 152
-0.284022 1.502415 0.130228 170 163 152
-0.277792 1.509362 0.130071 171 163 152
-0.271507 1.516297 0.129915 171 163 152
-0.265754 1.526861 0.12998 171 163 152
-0.259511 1.534874 0.12989 171 163 152
-0.252619 1.539049 0.12957 171 163 152
-0.24693 1.551576 0.129751 171 163 152
-0.240962 1.562905 0.129858 171 163 152
-0.234533 1.571604 0.129808 171 163 152
-0.2278 1.578571 0.129657 171 163 152
-0.2214 1.58856 0.129682 170 162 151
-0.21423 1.593036 0.129387 170 162 151
-0.206501 1.593119 0.128841 170 162 151
-0.198362 1.589568 0.128092 170 162 151
-0.193461 1.615061 0.129003 170 162 151
-0.188777 1.6448 0.130144 170 162 151
-0.182331 1.659739 0.130437 170 162 151
-0.174738 1.664139 0.130136 170 162 151
-0.169485 1.694488 0.131281 170 162 151
-0.162307 1.705848 0.13136 169 162 151
-0.153386 1.69724 0.130339 169 162 150
-0.145784 1.704547 0.130198 169 161 150
-0.139433 1.729844 0.131036 169 161 150
-0.131646 1.737499 0.130909 169 161 150
-0.123866 1.7463 0.130843 169 161 150
-0.116051 1.755845 0.130816 168 161 150
-0.107929 1.761284 0.130568 168 160 149
-0.100397 1.779501 0.130999 168 160 149
-0.092586 1.795227 0.131291 168 160 149
-0.084294 1.802599 0.131141 167 159 148
-0.075888 1.808616 0.130921 168 160 149
-0.067271 1.809602 0.130441 167 159 148
-0.059384 1.838136 0.131383 167 159 148
-0.05071 1.842916 0.131096 168 160 149
-0.041941 1.844701 0.130658 167 159 148
-0.032671 1.80894 0.128321 167 159 148
-0.024389 1.852143 0.129986 167 159 148
-0.015643 1.877704 0.130748 167 159 148
-0.006666 1.900055 0.13134 166 158 148
0.002459 1.911808 0.131398 166 158 147
0.011677 1.922061 0.13138 166 158 147
0.020888 1.925425 0.131023 166 158 147
0.030205 1.932631 0.130856 166 158 147
0.03963 1.941539 0.130772 165 157 146
0.048983 1.945022 0.130426 165 157 146
0.058517 1.952963 0.130296 165 157 146
0.068014 1.957912 0.130024 165 157 146
0.077735 1.96704 0.129952 165 157 146
0.087265 1.970268 0.1296 164 156 145
0.097034 1.97747 0.129439 164 156 146
0.107065 1.988118 0.12944 164 155 146
0.11667 1.990093 0.129037 164 156 145
0.126514 1.995374 0.12879 164 156 145
0.13634 1.999646 0.1285 164 156 145
0.146433 2.006906 0.128349 164 156 145
0.156422 2.011937 0.128098 162 156 144
0.166529 2.01776 0.127886 162 156 144
0.176472 2.021061 0.127563 162 156 145
0.186466 2.024514 0.12725 166 158 147
0.19619 2.024808 0.126799 162 154 143
0.205601 2.021963 0.126215 134 126 111
0.215139 2.020471 0.125697 132 123 106
0.224566 2.01804 0.125145 130 121 104
0.233583 2.012211 0.12445 129 120 103
0.24273 2.007828 0.123827 129 120 103
0.252178 2.006088 0.123326 128 119 102
0.2618 2.005723 0.122892 128 119 102
0.27077 2.000478 0.122254 128 119 102
0.279791 1.995865 0.121652 127 118 101
0.287618 1.983212 0.120716 127 118 101
0.295634 1.972541 0.119875 127 118 101
0.303889 1.963983 0.119134 126 118 101
0.312356 1.957179 0.118477 126 117 101
0.321901 1.957281 0.118119 126 117 101
0.330588 1.952186 0.117552 126 117 101
0.338601 1.943373 0.116839 126 117 101
0.345458 1.928428 0.115882 126 117 101
0.35442 1.925713 0.115443 125 116 101
0.363703 1.924755 0.115084 125 116 100
0.372954 1.923577 0.114725 126 117 100
0.381608 1.919324 0.114248 125 116 99
0.390167 1.914699 0.113766 125 116 100
0.398735 1.910232 0.113301 125 116 101
0.405954 1.899469 0.112591 125 116 101
0.413447 1.890349 0.111958 124 115 100
0.421917 1.885949 0.111526 125 116 101
0.430555 1.882378 0.111137 124 115 100
0.438745 1.8769 0.110683 123 114 99
0.446389 1.869215 0.110151 123 114 99
0.45418 1.862342 0.109662 124 115 99
0.461257 1.852713 0.109075 121 114 98
0.469097 1.846399 0.10863 122 115 99
0.476931 1.840191 0.108201 122 113 98
0.484088 1.831493 0.107684 122 114 98
0.492194 1.826587 0.107328 121 113 97
0.500165 1.821244 0.106965 121 113 98
0.507267 1.812807 0.106492 120 112 96
0.51425 1.804122 0.106021 119 112 96
0.520911 1.794494 0.105524 119 112 96
0.530083 1.793738 0.105382 119 111 95
0.537518 1.786996 0.105019 119 111 95
0.543495 1.775498 0.104483 119 111 95
0.552513 1.774224 0.104352 118 111 95
0.560798 1.770507 0.104137 118 111 95
0.565644 1.755882 0.103512 118 110 95
0.574555 1.754283 0.103398 118 110 94
0.57604 1.729814 0.102415 117 110 94
0.585128 1.728968 0.10235 117 109 93
0.595315 1.731293 0.102415 116 109 93
0.597587 1.71025 0.101591 116 109 93
0.607635 1.712155 0.101657 116 108 93
0.610667 1.693955 0.100959 115 108 92
0.610387 1.666919 0.099928 115 108 92
0.619709 1.667041 0.099947 115 108 92
0.62914 1.667352 0.09998 116 109 93
0.637424 1.664481 0.099895 116 109 93
0.642417 1.652913 0.09948 115 108 92
0.649106 1.64599 0.099248 115 108 92
0.654731 1.636448 0.098916 114 107 91
0.662287 1.631972 0.098782 114 106 91
0.67005 1.628066 0.098669 116 107 91
0.67494 1.61713 0.098285 115 106 91
0.682144 1.612048 0.098123 115 107 91
0.689131 1.606534 0.097942 113 106 90
0.695852 1.600499 0.097735 112 106 90
0.702976 1.595535 0.097562 111 105 89
0.708576 1.58717 0.09725 112 106 90
0.714186 1.579036 0.096936 113 106 90
0.72199 1.576039 0.096809 113 106 90
0.728519 1.570311 0.096562 112 105 89
0.73495 1.564541 0.096298 112 105 89
0.740681 1.557438 0.095966 111 105 89
0.746858 1.551519 0.095659 112 105 89
0.754073 1.548007 0.095424 113 106 90
0.760026 1.542025 0.095071 111 104 88
0.764967 1.534185 0.094622 111 104 88
0.772803 1.532552 0.094385 111 104 87
0.779128 1.528024 0.09401 112 105 86
0.785719 1.524262 0.093634 111 104 86
0.790193 1.516536 0.093078 112 105 87
0.7958 1.511348 0.092588 111 104 88
0.803337 1.510176 0.092216 109 102 86
0.808615 1.504866 0.091656 107 102 84
0.817457 1.506622 0.091325 107 101 83
0.821006 1.49856 0.090598 106 99 81
0.823176 1.488268 0.089759 102 95 77
0.829584 1.486202 0.089186 100 93 77
-0.656364 1.062384 0.143227 160 153 143
-0.65455 1.069091 0.14359 160 154 143
-0.649028 1.069492 0.143302 160 154 142
-0.644621 1.072024 0.143186 161 155 143
-0.641095 1.076328 0.143203 161 155 143
-0.638387 1.082327 0.143345 162 155 145
-0.635947 1.089059 0.143519 161 154 144
-0.632274 1.093751 0.143461 162 155 144
-0.627787 1.097121 0.143242 161 155 143
-0.621352 1.096971 0.142659 162 156 144
-0.618442 1.103662 0.142687 161 155 143
-0.615083 1.109717 0.142622 162 155 144
-0.611707 1.115945 0.142541 161 155 144
-0.607377 1.120492 0.142275 160 154 143
-0.603642 1.126389 0.142105 161 154 143
-0.599001 1.130638 0.14176 161 155 143
-0.593539 1.133343 0.141252 161 155 143
-0.588817 1.137673 0.140871 161 155 143
-0.584629 1.143246 0.140582 160 154 142
-0.581659 1.151547 0.140514 160 154 142
-0.577266 1.156996 0.140176 161 155 143
-0.572732 1.162266 0.139808 162 156 144
-0.568159 1.167566 0.139429 161 155 143
-0.562395 1.170319 0.138822 161 155 143
-0.558876 1.17818 0.138642 162 156 144
-0.555351 1.186193 0.138462 162 156 144
-0.550917 1.192261 0.13811 162 156 144
-0.544442 1.193645 0.137365 162 156 144
-0.539622 1.198948 0.136941 162 156 144
-0.534492 1.20358 0.136461 162 156 144
-0.531769 1.214156 0.136458 163 157 145
-0.526058 1.217546 0.135873 163 157 145
-0.52029 1.220814 0.13528 163 157 145
-0.515492 1.226563 0.134886 163 157 145
-0.510612 1.232181 0.134482 163 157 145
-0.505756 1.237939 0.13409 164 158 146
-0.500821 1.243567 0.13369 164 158 146
-0.496199 1.250113 0.133363 164 158 146
-0.491383 1.256232 0.133004 165 159 147
-0.485894 1.260573 0.132516 165 159 147
-0.480617 1.265551 0.13208 165 159 147
-0.476084 1.272712 0.131809 165 159 147
-0.470857 1.277986 0.131402 166 160 148
-0.466017 1.284469 0.131088 165 159 147
-0.462644 1.295458 0.131101 165 159 147
-0.455813 1.296177 0.13038 165 159 147
-0.450496 1.301508 0.129995 167 161 149
-0.445338 1.307415 0.129656 166 160 148
-0.44148 1.317571 0.129617 166 160 148
-0.436511 1.324367 0.129346 167 161 149
-0.430194 1.32685 0.128783 168 161 149
-0.426408 1.337819 0.128805 168 160 149
-0.420444 1.34164 0.128343 169 161 150
-0.414838 1.346747 0.127975 167 161 149
-0.410227 1.355463 0.127851 168 162 150
-0.404596 1.360733 0.127502 167 161 149
-0.398793 1.365473 0.127122 168 162 150
-0.393081 1.370645 0.126776 168 162 150
-0.388228 1.379192 0.126653 168 162 150
-0.382536 1.384727 0.126338 168 162 150
-0.376299 1.388238 0.125899 167 161 149
-0.37039 1.393126 0.125553 168 162 150
-0.364209 1.397009 0.125148 168 162 150
-0.358647 1.403566 0.124915 168 162 150
-0.353895 1.413786 0.124912 168 162 150
-0.350745 1.431358 0.12536 169 163 151
-0.344255 1.434695 0.124933 169 163 151
-0.336796 1.433679 0.124248 169 163 151
-0.330839 1.43955 0.123985 169 163 151
-0.325259 1.447415 0.123846 169 163 151
-0.3189 1.451765 0.123498 170 163 151
-0.312825 1.457671 0.123247 170 163 152
-0.308096 1.470689 0.123415 170 163 152
-0.302255 1.478444 0.123274 170 163 152
-0.296188 1.485312 0.123082 170 163 152
-0.290741 1.495897 0.123106 170 163 152
-0.284547 1.502738 0.122914 170 163 152
-0.278148 1.508691 0.122674 170 163 152
-0.272096 1.516995 0.122568 170 163 152
-0.266434 1.528129 0.122621 170 163 152
-0.259896 1.534285 0.122395 171 163 152
-0.254359 1.547316 0.122551 171 163 152
-0.247745 1.553832 0.122345 170 162 151
-0.241004 1.559817 0.122112 171 163 152
-0.234631 1.568799 0.122043 170 163 151
-0.22805 1.576792 0.12192 170 163 151
-0.22161 1.586393 0.121883 171 163 152
-0.214729 1.593107 0.121691 170 162 151
-0.20712 1.594204 0.121202 170 162 151
-0.199454 1.594834 0.120693 170 162 151
-0.192136 1.598602 0.120353 170 162 151
-0.187817 1.631001 0.121502 170 162 151
-0.18288 1.6602 0.122471 170 162 151
-0.175578 1.667636 0.122308 169 162 151
-0.168235 1.675318 0.122158 169 162 151
-0.160873 1.68354 0.122035 169 162 151
-0.15318 1.688605 0.121752 169 161 150
-0.145186 1.690361 0.121305 169 161 150
-0.140276 1.73436 0.122964 169 161 150
-0.132322 1.739878 0.122697 169 161 150
-0.124075 1.741564 0.122242 169 161 150
-0.116454 1.753981 0.122314 168 161 150
-0.10895 1.770581 0.122587 168 160 149
-0.101103 1.783307 0.122667 168 160 149
-0.093007 1.793101 0.122603 168 160 149
-0.084616 1.797821 0.122295 168 160 149
-0.076022 1.798069 0.121775 167 159 148
-0.068225 1.823512 0.122448 167 159 148
-0.059877 1.83714 0.122557 168 160 149
-0.051138 1.838883 0.122108 167 159 148
-0.042286 1.835121 0.121406 167 159 148
-0.033116 1.804473 0.119473 167 159 148
-0.024815 1.842037 0.120683 167 159 148
-0.016163 1.878313 0.121817 167 159 148
-0.007188 1.897514 0.122163 166 158 147
0.001888 1.902414 0.12186 166 158 147
0.010889 1.895154 0.121014 166 158 147
0.020233 1.916096 0.12143 166 158 147
0.029748 1.93591 0.121788 166 158 147
0.03908 1.940267 0.121462 165 157 146
0.048408 1.94302 0.121067 165 157 146
0.057827 1.947736 0.12076 165 157 146
0.067365 1.954393 0.120538 165 157 146
0.076907 1.959672 0.120258 165 156 146
0.086657 1.968294 0.120123 165 156 147
0.096352 1.974237 0.119874 164 155 145
0.106123 1.980514 0.11964 164 155 146
0.116397 1.994077 0.119713 164 156 145
0.126153 1.997723 0.119371 164 156 145
0.135937 2.001235 0.119026 164 156 145
0.145813 2.00548 0.118714 163 156 145
0.155978 2.012825 0.118532 163 157 145
0.166101 2.018788 0.118296 162 156 144
0.176058 2.022182 0.117957 163 157 145
0.18588 2.023727 0.117548 166 158 147
0.195434 2.022314 0.117024 164 156 145
0.204992 2.021001 0.11651 135 126 111
0.214594 2.020144 0.116021 131 122 105
0.224089 2.018325 0.115499 132 123 106
0.233214 2.0134 0.114863 130 121 104
0.242131 2.007053 0.114178 129 120 103
0.251511 2.004793 0.113661 129 120 103
0.261217 2.005119 0.11325 128 119 102
0.270494 2.002165 0.112719 127 118 102
0.279717 1.998937 0.112186 127 118 101
0.288035 1.989577 0.111427 127 118 101
0.295905 1.977702 0.110583 126 118 101
0.303291 1.963334 0.109656 126 117 101
0.312205 1.959368 0.109131 126 117 101
0.320768 1.953394 0.10854 126 117 101
0.329744 1.950126 0.108058 125 117 101
0.338674 1.946684 0.107577 125 117 101
0.34643 1.936706 0.106866 125 116 101
0.353916 1.925676 0.106126 125 116 101
0.362965 1.923476 0.105719 125 116 100
0.37244 1.923514 0.105402 125 116 100
0.380856 1.918056 0.104894 125 116 100
0.389748 1.91513 0.104487 125 116 101
0.398069 1.90946 0.10399 124 115 100
0.40613 1.902709 0.103465 124 115 100
0.413277 1.89192 0.102807 124 115 100
0.421759 1.887549 0.102388 124 115 100
0.430393 1.883937 0.102004 124 115 100
0.438097 1.876325 0.101491 122 113 98
0.44612 1.870274 0.101042 123 114 99
0.453994 1.863736 0.100588 123 114 99
0.461356 1.855249 0.100076 122 113 98
0.46876 1.847154 0.099589 121 114 98
0.475997 1.838596 0.099097 121 114 98
0.483635 1.831791 0.098676 121 114 98
0.49145 1.825794 0.098294 121 114 98
0.498813 1.818218 0.097869 120 113 97
0.506129 1.810627 0.097454 119 112 96
0.5134 1.803025 0.09705 119 111 95
0.522803 1.803061 0.096916 119 111 95
0.530634 1.797546 0.096604 119 111 95
0.537445 1.78863 0.096187 118 111 95
0.544335 1.780154 0.095796 118 111 95
0.554695 1.783225 0.095805 118 111 95
0.561332 1.774054 0.095411 118 111 95
0.565706 1.757872 0.094791 118 110 94
0.572066 1.748291 0.094404 117 110 94
0.578356 1.738673 0.094026 117 109 94
0.587451 1.737722 0.093948 116 109 93
0.595166 1.732567 0.093738 116 109 93
0.600093 1.719277 0.093264 116 108 93
0.604933 1.70602 0.0928 115 108 92
0.611081 1.696766 0.092477 115 108 92
0.609975 1.667354 0.091486 115 108 92
0.619057 1.666816 0.091471 115 108 92
0.628825 1.668048 0.091521 115 108 92
0.636593 1.663784 0.091392 115 108 92
0.644048 1.658715 0.09124 115 108 92
0.648793 1.646639 0.090857 114 107 91
0.654356 1.636911 0.090556 115 107 92
0.660624 1.629156 0.090323 116 107 92
0.668065 1.624468 0.090194 115 106 91
0.675415 1.619613 0.090059 115 106 91
0.681701 1.612244 0.089838 116 107 92
0.68833 1.605841 0.089646 114 107 91
0.695632 1.601157 0.089507 112 105 89
0.702346 1.59519 0.089319 112 106 90
0.709581 1.590557 0.089169 112 106 90
0.712421 1.576031 0.088676 113 106 90
0.720584 1.573833 0.088587 113 106 90
0.728143 1.570365 0.088443 112 105 89
0.734394 1.564141 0.088192 112 105 89
0.740114 1.55696 0.087892 111 104 88
0.745757 1.549838 0.087575 112 105 87
0.753113 1.546575 0.087369 112 105 89
0.759274 1.540972 0.087062 111 104 88
0.763861 1.532336 0.08663 111 104 86
0.770852 1.528918 0.086348 111 104 86
0.779255 1.528551 0.08614 110 103 85
0.785194 1.523395 0.085745 111 104 86
0.790472 1.517186 0.085287 110 103 85
0.795736 1.511233 0.084807 110 103 86
0.802413 1.508307 0.084395 110 103 86
0.811385 1.510021 0.0841 109 102 84
0.816977 1.505456 0.08357 107 100 83
0.8218 1.499717 0.08297 106 99 81
0.823089 1.487685 0.082141 102 95 77
0.828512 1.483715 0.081535 101 94 78
-0.65563 1.059593 0.137427 160 154 143
-0.652914 1.064745 0.137601 159 152 142
-0.649163 1.068298 0.137589 160 154 143
-0.645055 1.071412 0.1375 160 154 142
-0.641565 1.075828 0.137494 160 154 142
-0.637799 1.079954 0.137425 161 154 144
-0.637085 1.089886 0.137845 160 153 143
-0.63327 1.094378 0.137734 161 155 144
-0.627881 1.096119 0.137343 161 155 143
-0.624615 1.102018 0.137291 160 154 142
-0.62044 1.106394 0.13707 161 155 143
-0.615431 1.109332 0.136693 161 155 143
-0.610298 1.112169 0.136279 161 155 143
-0.608267 1.121266 0.136383 161 155 143
-0.604008 1.126168 0.136094 160 154 142
-0.599623 1.130973 0.135772 161 155 143
-0.594525 1.134467 0.135316 160 154 142
-0.588846 1.136865 0.13475 161 155 143
-0.585852 1.144962 0.134645 161 155 143
-0.582506 1.152517 0.134473 160 154 142
-0.577915 1.157578 0.134078 160 154 142
-0.57397 1.164161 0.133794 161 155 143
-0.568879 1.168364 0.133303 161 155 143
-0.563395 1.171773 0.13274 161 155 143
-0.559027 1.177751 0.132375 162 156 144
-0.554936 1.184475 0.13206 162 156 144
-0.550147 1.18971 0.131621 162 156 144
-0.545702 1.195836 0.131247 162 156 144
-0.540192 1.199531 0.13068 162 156 144
-0.53539 1.204969 0.130246 162 156 144
-0.531793 1.213428 0.130039 162 156 144
-0.526271 1.217278 0.129482 163 157 145
-0.520646 1.220901 0.128909 163 157 145
-0.515372 1.225438 0.128407 163 157 145
-0.511121 1.23266 0.128104 163 157 145
-0.507116 1.240647 0.127855 163 157 145
-0.502458 1.247043 0.127492 164 158 146
-0.497997 1.254066 0.127175 165 159 147
-0.492091 1.257255 0.126588 164 158 146
-0.486299 1.260762 0.12603 164 158 146
-0.481242 1.266352 0.125623 165 159 147
-0.476896 1.27405 0.125365 165 159 147
-0.472067 1.280488 0.125022 165 159 147
-0.466517 1.284904 0.124546 165 159 147
-0.460721 1.288632 0.124029 165 159 147
-0.456021 1.295713 0.123742 167 161 149
-0.45065 1.300854 0.12333 167 161 149
-0.446318 1.309328 0.123141 167 161 149
-0.441863 1.317595 0.12294 166 160 148
-0.436365 1.322661 0.122535 166 160 148
-0.432054 1.331717 0.12239 168 160 149
-0.426681 1.337428 0.122034 168 160 149
-0.421203 1.34289 0.121667 168 160 149
-0.415734 1.348479 0.121313 167 161 148
-0.410673 1.355618 0.121059 167 161 149
-0.405364 1.362035 0.120764 167 161 149
-0.399204 1.365481 0.120292 167 161 149
-0.393297 1.369909 0.119886 168 162 150
-0.388863 1.380015 0.119824 167 161 149
-0.382842 1.384277 0.119416 168 162 150
-0.377283 1.390446 0.119125 167 161 149
-0.370855 1.393277 0.118643 168 162 150
-0.36442 1.396108 0.118167 168 162 150
-0.35825 1.400086 0.117763 168 162 150
-0.353279 1.409276 0.117661 168 162 150
-0.351529 1.432836 0.118376 168 162 150
-0.345524 1.438358 0.118064 169 162 150
-0.337345 1.43414 0.117209 169 163 151
-0.330112 1.434061 0.116596 169 163 151
-0.325975 1.448661 0.1168 169 163 151
-0.319468 1.452309 0.1164 169 163 151
-0.31351 1.458799 0.116159 170 163 151
-0.308193 1.468813 0.11611 170 163 151
-0.302492 1.477248 0.115976 170 163 151
-0.296336 1.483588 0.11573 170 163 151
-0.290747 1.493327 0.115666 170 163 151
-0.284671 1.500758 0.11548 170 163 151
-0.278315 1.506896 0.115228 170 163 151
-0.272502 1.516571 0.115161 170 163 152
-0.266454 1.525286 0.115043 170 163 152
-0.260558 1.535424 0.114998 170 163 152
-0.255094 1.548951 0.115123 171 163 152
-0.248626 1.556489 0.114942 170 162 151
-0.241761 1.561697 0.114646 171 163 152
-0.235261 1.569812 0.114496 170 163 152
-0.2287 1.577981 0.114349 171 163 152
-0.22205 1.58599 0.114193 171 163 152
-0.215237 1.593232 0.114 170 162 151
-0.207704 1.594971 0.113541 170 162 151
-0.200103 1.5962 0.113061 170 162 151
-0.193122 1.603073 0.112854 170 162 151
-0.187855 1.626652 0.113439 169 162 151
-0.183284 1.659193 0.114434 169 162 151
-0.176158 1.668403 0.114323 169 162 151
-0.168515 1.672863 0.113991 169 162 151
-0.160916 1.678238 0.113702 169 162 150
-0.153418 1.685366 0.113495 169 161 150
-0.145972 1.693958 0.113354 169 161 150
-0.140845 1.735084 0.114682 169 161 150
-0.133004 1.742308 0.114467 169 161 150
-0.124835 1.7454 0.114069 169 161 150
-0.117363 1.760604 0.114208 168 161 150
-0.109275 1.767089 0.11396 168 160 149
-0.101039 1.771787 0.113633 168 160 149
-0.09295 1.780548 0.113483 168 160 149
-0.084983 1.794178 0.113543 168 160 149
-0.076649 1.801167 0.113314 168 160 149
-0.068668 1.821123 0.113636 168 160 149
-0.060058 1.824767 0.113261 168 160 149
-0.051551 1.834274 0.113135 168 160 149
-0.042807 1.835497 0.112661 167 159 148
-0.033564 1.800339 0.110682 167 159 148
-0.025207 1.828657 0.111339 167 159 148
-0.016671 1.875986 0.112763 166 159 148
-0.007711 1.888573 0.112752 166 158 147
0.001318 1.892168 0.112376 166 158 147
0.010432 1.901057 0.112214 166 158 147
0.019631 1.910149 0.112059 166 158 147
0.029117 1.930012 0.112329 165 157 147
0.038562 1.940265 0.112215 165 157 146
0.047843 1.941285 0.111739 165 157 146
0.057285 1.946892 0.111444 165 157 146
0.066775 1.952355 0.111145 165 156 146
0.076333 1.958205 0.110862 165 156 146
0.086049 1.966249 0.110663 165 156 147
0.095839 1.974229 0.110462 164 155 146
0.106192 1.990927 0.110589 164 155 146
0.11601 1.996166 0.110284 163 155 145
0.125764 1.999611 0.109915 163 155 144
0.135483 2.002046 0.109511 163 155 144
0.145431 2.007203 0.10921 162 155 144
0.155534 2.013655 0.108959 162 156 144
0.165613 2.019056 0.108671 162 156 144
0.175566 2.022384 0.108311 162 156 144
0.185189 2.021762 0.107814 163 157 145
0.194753 2.020535 0.1073 163 156 144
0.204482 2.02096 0.106851 135 126 111
0.214353 2.02261 0.106449 131 122 106
0.223743 2.019734 0.105894 132 123 106
0.232997 2.01585 0.105311 130 121 104
0.242174 2.011554 0.104722 129 120 103
0.251129 2.005723 0.104087 128 119 102
0.260298 2.001886 0.103528 128 119 102
0.269379 1.997588 0.102962 127 118 101
0.279133 1.998317 0.102571 127 118 101
0.287933 1.992305 0.101962 126 118 101
0.295135 1.975846 0.101015 126 117 101
0.30367 1.968992 0.100398 126 117 101
0.311583 1.958533 0.099671 126 117 101
0.320329 1.953705 0.099138 125 117 101
0.328947 1.948298 0.098596 125 117 101
0.33885 1.950552 0.098309 125 116 101
0.347185 1.943736 0.097737 125 116 101
0.352391 1.919981 0.096635 125 116 101
0.362587 1.92408 0.096432 125 116 100
0.371939 1.923472 0.096086 125 116 101
0.380992 1.921268 0.095698 126 117 100
0.389273 1.915232 0.095199 125 116 101
0.397449 1.90886 0.094699 125 116 101
0.405816 1.903585 0.094243 125 116 101
0.414125 1.898174 0.093792 125 116 101
0.421566 1.88895 0.093234 124 115 100
0.429083 1.880351 0.092707 123 114 99
0.437387 1.875434 0.092302 123 114 99
0.445951 1.871715 0.091943 123 114 99
0.454135 1.866449 0.091547 123 114 99
0.461315 1.857174 0.091042 122 114 99
0.468124 1.846661 0.09051 121 114 98
0.476742 1.843552 0.090211 121 114 98
0.484191 1.835935 0.089787 121 114 98
0.490469 1.824053 0.089248 120 113 97
0.49849 1.818967 0.088921 120 113 97
0.507134 1.816217 0.088674 120 113 97
0.515108 1.811042 0.088365 119 111 95
0.522926 1.805378 0.088052 119 111 94
0.530983 1.800613 0.087776 118 111 95
0.536494 1.787237 0.08726 118 111 95
0.543951 1.780687 0.086953 118 111 95
0.554189 1.783369 0.086924 118 111 95
0.562001 1.777998 0.086671 118 111 95
0.565389 1.758619 0.086025 117 110 94
0.571776 1.749116 0.085673 117 110 94
0.57782 1.738734 0.085307 117 109 93
0.586632 1.736937 0.085197 116 109 93
0.595803 1.736143 0.085124 116 109 93
0.600585 1.722369 0.084688 116 108 92
0.605907 1.710458 0.084313 115 108 92
0.609606 1.694165 0.083822 115 108 92
0.611157 1.672225 0.083176 115 108 92
0.620508 1.672358 0.08317 115 108 92
0.628566 1.668863 0.083066 116 109 93
0.636251 1.66436 0.082939 115 108 92
0.643474 1.658664 0.082783 114 107 91
0.650772 1.653231 0.082638 114 107 91
0.657327 1.645945 0.082444 115 108 92
0.661943 1.633865 0.082115 115 106 91
0.668671 1.627312 0.081945 115 107 91
0.674923 1.619694 0.081745 115 106 91
0.681837 1.613827 0.081594 115 106 91
0.687858 1.605918 0.081382 113 106 90
0.694254 1.59906 0.081197 113 106 90
0.702054 1.595622 0.081105 112 105 89
0.708678 1.589538 0.08093 112 105 89
0.714381 1.581496 0.08069 113 106 90
0.720051 1.573579 0.080444 113 106 90
0.727106 1.568946 0.080281 112 105 89
0.733791 1.56364 0.080084 112 105 89
0.738112 1.553373 0.07973 112 105 89
0.746384 1.55186 0.07961 113 106 90
0.752568 1.546029 0.079348 112 105 89
0.758098 1.539042 0.079032 112 105 89
0.764134 1.533352 0.078731 111 104 87
0.771553 1.530723 0.078492 111 104 88
0.779378 1.529088 0.078256 111 104 87
0.785893 1.524999 0.077924 111 104 86
0.790774 1.517903 0.077479 111 104 86
0.795277 1.510366 0.076994 109 102 84
0.801813 1.507091 0.076597 110 103 84
0.810422 1.508033 0.076284 110 103 86
0.815865 1.503117 0.075779 108 101 85
0.819292 1.494684 0.075149 105 98 82
0.824738 1.490371 0.074598 101 94 77
0.825222 1.477158 0.073782 102 95 77
-0.65703 1.060529 0.131967 160 153 143
-0.652218 1.062074 0.131786 160 153 143
-0.648561 1.065822 0.131762 161 154 144
-0.645832 1.071428 0.131863 161 155 143
-0.642729 1.076596 0.131888 160 154 142
-0.639915 1.082514 0.13194 161 154 144
-0.636574 1.087699 0.131894 160 153 143
-0.633266 1.093164 0.131835 160 154 143
-0.629071 1.097184 0.13162 160 154 142
-0.624322 1.100338 0.131299 161 155 143
-0.620857 1.106105 0.131167 160 154 142
-0.615732 1.108867 0.130755 161 155 143
-0.610502 1.111556 0.13031 160 154 142
-0.605428 1.114675 0.129876 161 155 143
-0.603983 1.125168 0.130017 160 154 142
-0.600517 1.131859 0.129823 161 155 143
-0.595742 1.13606 0.129405 161 155 143
-0.591537 1.141563 0.129072 161 155 143
-0.586746 1.145985 0.128636 160 154 142
-0.58166 1.149888 0.128144 161 155 143
-0.578422 1.157848 0.127952 161 155 143
-0.573894 1.163188 0.127544 160 154 142
-0.569731 1.169442 0.127194 161 155 143
-0.564438 1.173307 0.126653 161 155 143
-0.5577 1.173975 0.125867 161 155 143
-0.555922 1.185944 0.125916 162 156 144
-0.550683 1.190168 0.125383 162 156 144
-0.545054 1.193531 0.124786 162 156 144
-0.540134 1.198605 0.12431 162 156 144
-0.535913 1.205432 0.123958 162 156 144
-0.531504 1.211916 0.123579 163 157 145
-0.526308 1.216553 0.123068 162 156 144
-0.520825 1.220521 0.122512 163 157 145
-0.516795 1.228216 0.122215 163 157 145
-0.511671 1.23322 0.121734 162 156 144
-0.507976 1.242019 0.121511 163 157 145
-0.503153 1.247989 0.121098 164 158 146
-0.498009 1.253179 0.120635 164 158 146
-0.492478 1.257372 0.12011 164 158 146
-0.486428 1.26016 0.119499 164 158 146
-0.481649 1.266512 0.119125 164 158 146
-0.476683 1.272429 0.118726 165 159 147
-0.472182 1.279781 0.118422 165 159 147
-0.465955 1.282186 0.117809 165 159 147
-0.460608 1.2872 0.117367 166 159 147
-0.455736 1.293723 0.117022 166 159 148
-0.45213 1.304267 0.116927 166 160 148
-0.446992 1.310253 0.116555 166 160 148
-0.441755 1.316027 0.116174 167 161 149
-0.436969 1.32336 0.11589 166 159 148
-0.431542 1.328736 0.115494 167 159 148
-0.426459 1.335353 0.115176 168 160 149
-0.421298 1.341845 0.114853 168 161 150
-0.416181 1.348623 0.114551 168 160 149
-0.410891 1.354941 0.114225 167 160 149
