ply
format ascii 1.0
comment ---
element vertex 1257
property float x
property float y
property float z
property uchar red
property uchar green
property uchar blue
element face 0
property list uchar uint vertex_indices
end_header
0.195391 1.604408 -0.849139 120 68 48
-0.432379 1.462695 -0.846496 188 185 171
-0.426014 1.47786 -0.853296 186 182 170
-0.418771 1.483838 -0.855453 184 180 168
-0.411484 1.489926 -0.857664 181 177 165
-0.404305 1.498319 -0.86103 178 175 162
-0.396301 1.495061 -0.85854 174 172 159
-0.388877 1.500917 -0.860631 171 169 157
-0.381772 1.513656 -0.866167 167 165 152
-0.374215 1.519655 -0.868321 162 162 148
-0.365993 1.511603 -0.863448 158 159 145
-0.358291 1.514812 -0.864212 154 155 141
-0.350345 1.511472 -0.861709 150 150 136
-0.342394 1.506564 -0.858434 143 138 127
-0.3351 1.527832 -0.868198 97 89 82
-0.310586 1.415859 -0.81017 99 92 84
-0.303215 1.391283 -0.797234 97 89 82
-0.296067 1.377847 -0.789844 91 84 76
-0.288999 1.371821 -0.786136 84 77 69
-0.281984 1.366486 -0.78278 78 69 62
-0.275021 1.361177 -0.779447 72 63 54
-0.267942 1.363146 -0.779711 64 54 44
-0.260414 1.380227 -0.787421 58 47 34
-0.253099 1.385529 -0.789322 54 41 28
-0.245658 1.392596 -0.792089 63 39 28
-0.23814 1.399624 -0.794835 70 41 27
-0.230753 1.402337 -0.795462 71 41 24
-0.223474 1.402399 -0.794791 81 46 28
-0.215621 1.412038 -0.798812 100 61 42
-0.208307 1.411592 -0.797897 114 72 53
-0.201274 1.407026 -0.794973 118 75 57
-0.193921 1.407238 -0.79439 121 78 61
-0.18575 1.417539 -0.79873 122 80 63
-0.17811 1.42018 -0.799334 125 83 66
-0.170927 1.417308 -0.797257 128 85 68
-0.163497 1.417186 -0.796524 124 81 64
-0.155951 1.418087 -0.796291 125 82 64
-0.148558 1.417305 -0.795245 127 83 64
-0.140996 1.417978 -0.794909 128 84 65
-0.133271 1.419851 -0.795158 126 82 63
-0.12614 1.416529 -0.792895 126 83 64
-0.118541 1.41703 -0.792487 129 84 65
-0.110092 1.423797 -0.795108 131 84 66
-0.102569 1.423165 -0.794157 129 82 64
-0.094801 1.424162 -0.793994 130 83 65
-0.086209 1.430531 -0.796421 129 82 62
-0.077696 1.435815 -0.798323 126 79 59
-0.070641 1.431435 -0.795579 126 79 59
-0.061749 1.438435 -0.798305 127 79 60
-0.054271 1.436527 -0.796754 127 79 59
-0.045055 1.444589 -0.799985 128 80 60
-0.036803 1.446727 -0.800374 129 81 61
-0.027899 1.452172 -0.802345 127 80 60
-0.019102 1.456677 -0.803863 127 80 60
-0.01013 1.46176 -0.805654 128 80 60
-0.000755 1.468525 -0.808244 127 79 59
0.007066 1.467404 -0.807067 126 79 59
0.015722 1.470249 -0.80778 126 79 59
0.024559 1.473773 -0.808812 125 78 60
0.033112 1.475878 -0.809164 125 78 60
0.041734 1.478214 -0.809622 124 78 59
0.047757 1.46941 -0.804788 123 77 59
0.056896 1.474065 -0.80634 123 77 59
0.066074 1.478772 -0.807907 122 77 59
0.074839 1.481741 -0.808643 121 76 57
0.08847 1.503732 -0.818363 121 76 57
0.099554 1.515241 -0.823106 119 74 55
0.107099 1.51321 -0.821443 119 74 55
0.111939 1.501523 -0.815221 120 75 56
0.123459 1.514615 -0.820671 123 76 58
0.134743 1.526644 -0.8256 122 75 57
0.146608 1.540546 -0.831387 123 74 56
0.156187 1.546455 -0.833398 123 72 54
0.167526 1.558403 -0.838225 122 71 50
0.177673 1.566356 -0.841157 121 69 48
0.208506 1.641752 -0.87563 119 66 48
-0.431984 1.463175 -0.855286 185 181 169
-0.425031 1.471671 -0.85876 185 181 169
-0.417573 1.474757 -0.859473 183 179 167
-0.410047 1.477219 -0.859868 181 177 165
-0.402291 1.47659 -0.858693 176 175 162
-0.394789 1.479668 -0.859406 173 171 158
-0.38653 1.470244 -0.853777 171 169 156
-0.380513 1.500791 -0.86842 165 163 150
-0.36537 1.511176 -0.871975 157 158 144
-0.357076 1.499224 -0.865092 157 158 144
-0.342199 1.52313 -0.875474 132 129 118
-0.327572 1.588517 -0.906685 53 49 40
-0.319214 1.576873 -0.89997 43 39 30
-0.310877 1.5512 -0.886233 41 37 28
-0.288297 1.371104 -0.793651 85 80 73
-0.281342 1.360528 -0.787641 80 75 69
-0.274355 1.357459 -0.785393 73 67 61
-0.267346 1.356541 -0.784226 63 56 48
-0.260348 1.355444 -0.782975 56 48 39
-0.253213 1.358615 -0.783854 50 41 30
-0.245843 1.366854 -0.787253 36 28 19
-0.238385 1.375049 -0.790627 40 25 16
-0.230782 1.384327 -0.794534 55 36 23
-0.223446 1.386818 -0.795073 67 40 22
-0.216164 1.38784 -0.794886 74 41 22
-0.208393 1.396106 -0.798286 86 48 28
-0.201404 1.391842 -0.79549 105 64 47
-0.194087 1.392381 -0.795074 117 74 58
-0.186356 1.397852 -0.797095 121 78 62
-0.178527 1.403677 -0.799289 125 83 66
-0.171297 1.402074 -0.797826 127 84 67
-0.163782 1.403486 -0.797851 124 81 64
-0.156314 1.404136 -0.797505 123 80 64
-0.14937 1.399648 -0.794641 125 82 65
-0.142489 1.394885 -0.79165 124 81 64
-0.135023 1.395414 -0.791261 128 82 65
-0.127368 1.3973 -0.791538 127 82 63
-0.11923 1.402681 -0.793527 127 82 63
-0.111728 1.40271 -0.792901 127 82 63
-0.103802 1.40567 -0.793709 127 80 62
-0.096162 1.406292 -0.793377 127 80 62
-0.084927 1.430906 -0.804737 127 80 60
-0.078639 1.421596 -0.799565 127 80 60
-0.071369 1.418951 -0.797646 127 80 60
-0.064144 1.416092 -0.795628 126 79 61
-0.055893 1.419343 -0.796581 126 79 60
-0.048054 1.419954 -0.796252 128 79 61
-0.037673 1.434479 -0.802667 128 80 60
-0.029344 1.437077 -0.803298 127 80 60
-0.020609 1.441576 -0.804845 127 80 60
-0.013089 1.43962 -0.803271 127 80 60
-0.005467 1.438226 -0.801969 127 80 60
0.005977 1.455228 -0.809543 126 79 59
0.013384 1.452456 -0.80757 126 79 59
0.020706 1.449437 -0.80548 126 79 59
0.030162 1.456086 -0.808041 126 79 61
0.036402 1.44848 -0.803742 126 78 61
0.042809 1.441985 -0.799981 125 78 60
0.051965 1.447275 -0.801874 124 77 58
0.062739 1.458996 -0.806841 124 77 59
0.071781 1.463451 -0.808312 122 76 58
0.077767 1.455975 -0.804066 121 76 56
0.089 1.468965 -0.809601 122 77 58
0.099527 1.478988 -0.813699 122 77 58
0.108499 1.483138 -0.814978 120 75 56
0.1204 1.497897 -0.8213 120 73 55
0.130759 1.506934 -0.824874 119 72 54
0.138767 1.507775 -0.824531 121 73 55
0.149668 1.518747 -0.828989 122 73 53
0.162087 1.534758 -0.835817 123 72 52
0.174472 1.550474 -0.842476 123 71 50
0.183208 1.554213 -0.843434 121 69 48
-0.430795 1.454836 -0.859562 184 181 168
-0.423173 1.455095 -0.85883 183 180 167
-0.416121 1.462455 -0.861763 180 178 165
-0.408592 1.46425 -0.861827 178 175 163
-0.403014 1.494617 -0.876588 171 172 158
-0.385345 1.459251 -0.856705 169 169 155
-0.37763 1.457252 -0.854841 168 167 154
-0.364179 1.497624 -0.873824 158 158 144
-0.357183 1.518669 -0.883727 152 153 139
-0.349445 1.52334 -0.885257 147 148 134
-0.342372 1.553994 -0.90003 86 85 74
-0.334353 1.555939 -0.900157 45 43 35
-0.318584 1.5868 -0.914123 24 22 13
-0.310364 1.587128 -0.913423 23 20 11
-0.280276 1.384945 -0.807821 53 49 40
-0.273617 1.357235 -0.793097 62 58 49
-0.266616 1.355374 -0.791444 48 44 35
-0.259655 1.352684 -0.789379 36 31 20
-0.252745 1.349192 -0.786919 28 22 12
-0.245798 1.347425 -0.785334 23 19 9
-0.238763 1.347915 -0.78489 23 17 9
-0.230788 1.366989 -0.793775 21 17 6
-0.223448 1.370839 -0.795014 35 23 11
-0.21644 1.368381 -0.793095 53 32 18
-0.208949 1.373549 -0.794998 66 36 22
-0.201544 1.376621 -0.795853 71 37 21
-0.19405 1.380295 -0.79701 84 45 29
-0.186554 1.383371 -0.79787 111 69 52
-0.179167 1.384681 -0.797852 118 76 60
-0.171658 1.387038 -0.798358 122 81 63
-0.164091 1.389593 -0.798966 124 81 64
-0.15684 1.388637 -0.79783 124 81 63
-0.14971 1.386509 -0.796118 124 81 64
-0.142593 1.384329 -0.794386 123 80 63
-0.135856 1.378976 -0.791088 124 81 64
-0.128967 1.375175 -0.788568 126 81 65
-0.120954 1.380317 -0.790479 126 81 62
-0.112834 1.385718 -0.792517 125 80 61
-0.105375 1.38582 -0.791938 126 80 62
-0.097769 1.386809 -0.791799 127 80 62
-0.089331 1.393167 -0.79431 125 78 60
-0.08062 1.400722 -0.797407 126 79 60
-0.073313 1.398914 -0.795895 125 78 59
-0.065561 1.399796 -0.795709 125 78 60
-0.058334 1.397458 -0.793943 127 80 62
-0.049462 1.40448 -0.796774 126 79 61
-0.040605 1.410927 -0.799319 126 78 59
-0.032386 1.41352 -0.799972 127 79 59
-0.024725 1.41301 -0.799106 126 79 59
-0.016305 1.416303 -0.8001 127 79 59
-0.010198 1.408031 -0.795442 127 79 59
-0.000758 1.416097 -0.798764 125 78 58
0.008446 1.422636 -0.801334 125 78 58
0.017696 1.429072 -0.803846 126 78 58
0.023229 1.418746 -0.798191 126 78 59
0.032769 1.426284 -0.80123 125 77 60
0.04038 1.425383 -0.800158 124 76 57
0.048863 1.428203 -0.800889 123 76 56
0.059596 1.440098 -0.806014 124 77 57
0.067469 1.440291 -0.805452 124 77 59
0.076029 1.443282 -0.806238 124 77 57
0.084491 1.445946 -0.806855 123 77 57
0.095528 1.458277 -0.812133 123 76 58
0.104434 1.462572 -0.81351 123 75 57
0.108113 1.448219 -0.805882 122 75 57
0.126935 1.487894 -0.824284 120 73 54
0.135252 1.490151 -0.824629 119 72 53
0.143703 1.49309 -0.825288 120 72 54
0.162343 1.530265 -0.842373 119 70 50
0.171286 1.534723 -0.843712 120 71 50
0.16838 1.501089 -0.826781 121 71 51
-0.437935 1.453942 -0.868546 183 179 166
-0.429215 1.442111 -0.861486 183 179 166
-0.421792 1.444146 -0.861681 181 177 165
-0.415173 1.45653 -0.867273 178 176 163
-0.408327 1.467435 -0.872085 174 173 159
-0.398877 1.441701 -0.857833 175 173 160
-0.392722 1.463854 -0.868493 170 169 156
-0.376774 1.451704 -0.860488 165 165 152
-0.369563 1.459458 -0.863663 161 162 148
-0.355974 1.503364 -0.884674 146 147 133
-0.349323 1.540148 -0.902803 107 106 92
-0.333432 1.546227 -0.9042 42 42 30
-0.325827 1.572383 -0.916793 27 28 17
-0.317609 1.568081 -0.913711 19 21 9
-0.265558 1.367118 -0.80527 24 21 12
-0.258826 1.354218 -0.797976 24 21 12
-0.252198 1.342032 -0.791064 23 19 10
-0.245293 1.339751 -0.789208 22 19 9
-0.238352 1.338662 -0.787964 19 16 7
-0.231475 1.336389 -0.786124 16 13 5
-0.224018 1.344826 -0.789722 11 11 2
-0.21651 1.352512 -0.792937 14 10 1
-0.208896 1.360479 -0.796291 30 18 10
-0.201529 1.363682 -0.797233 56 33 20
-0.194181 1.366062 -0.797761 66 37 22
-0.186638 1.370375 -0.799267 72 38 21
-0.179604 1.368183 -0.797495 83 45 28
-0.172284 1.369207 -0.797349 105 66 48
-0.164774 1.371925 -0.798059 120 80 62
-0.157503 1.371895 -0.797391 122 79 62
-0.1498 1.375735 -0.79867 124 81 64
-0.142536 1.375206 -0.797758 123 80 63
-0.135734 1.370684 -0.79485 124 80 63
-0.128909 1.366597 -0.792168 122 79 62
-0.121642 1.366138 -0.791309 124 81 64
-0.114062 1.367912 -0.791571 124 80 62
-0.107089 1.365086 -0.789538 125 79 62
-0.099476 1.366758 -0.789755 124 79 60
-0.091669 1.369476 -0.790497 126 80 64
-0.083652 1.373239 -0.791759 126 79 60
-0.075604 1.376836 -0.792938 126 79 60
-0.068282 1.375743 -0.791786 125 78 60
-0.060258 1.378697 -0.792647 126 79 61
-0.050738 1.389813 -0.797559 125 78 60
-0.041893 1.396504 -0.800269 125 78 60
-0.034061 1.397361 -0.800084 127 79 59
-0.026448 1.396976 -0.799284 127 78 61
-0.01938 1.393833 -0.797121 125 78 60
-0.012573 1.389549 -0.794397 127 79 60
-0.003587 1.395828 -0.796892 127 79 59
0.005259 1.401134 -0.798899 126 78 58
0.011388 1.393904 -0.794721 125 78 58
0.019916 1.397633 -0.795945 125 77 57
0.029336 1.405076 -0.798989 125 77 59
0.037913 1.408694 -0.800142 124 76 57
0.045632 1.408701 -0.799514 124 76 56
0.055088 1.415803 -0.802361 125 77 57
0.063267 1.417699 -0.802644 124 76 57
0.072548 1.423911 -0.805032 125 77 57
0.082352 1.432025 -0.808336 126 78 58
0.088265 1.425588 -0.804511 125 77 57
0.100412 1.442274 -0.811975 124 77 57
0.109379 1.447229 -0.813689 122 75 57
0.113638 1.435767 -0.807386 122 75 57
0.120066 1.43245 -0.805048 121 74 55
0.129829 1.440825 -0.808388 121 74 54
0.172139 1.532282 -0.851264 118 69 52
0.170404 1.502605 -0.836051 119 70 52
-0.437604 1.455052 -0.877749 181 177 165
-0.428955 1.444236 -0.871145 181 177 165
-0.421215 1.442799 -0.869509 180 176 164
-0.413415 1.440283 -0.867311 177 175 162
-0.406988 1.456046 -0.874744 172 171 158
-0.400296 1.470186 -0.881311 169 170 156
-0.39206 1.461894 -0.87608 167 167 155
-0.384301 1.46025 -0.874354 165 165 153
-0.37654 1.458097 -0.872368 162 163 149
-0.369233 1.464948 -0.875103 159 159 147
-0.355402 1.505255 -0.894466 110 111 97
-0.347965 1.518509 -0.90052 73 74 59
-0.333007 1.559875 -0.920337 33 35 24
-0.325134 1.57565 -0.927666 20 23 13
-0.316718 1.556268 -0.916713 15 17 8
-0.308454 1.528175 -0.901266 13 15 5
-0.300502 1.535545 -0.904244 8 9 1
-0.267356 1.593224 -0.930698 9 10 4
-0.24468 1.334691 -0.794373 15 14 7
-0.237792 1.332647 -0.792631 12 11 4
-0.23085 1.331937 -0.79158 9 9 2
-0.223978 1.330009 -0.78991 9 10 4
-0.217023 1.329612 -0.789032 8 9 2
-0.209999 1.330167 -0.788646 8 7 2
-0.201587 1.349801 -0.79802 18 12 5
-0.194259 1.352599 -0.79878 32 21 9
-0.186935 1.35485 -0.799263 55 33 18
-0.179544 1.357465 -0.799934 66 35 20
-0.172303 1.358035 -0.799566 73 39 23
-0.16503 1.358731 -0.799266 81 46 28
-0.157862 1.358204 -0.798349 103 64 46
-0.150657 1.357924 -0.797563 117 75 58
-0.142868 1.362661 -0.799328 121 78 61
-0.135876 1.360157 -0.797422 122 79 62
-0.128817 1.358279 -0.795839 122 79 62
-0.121612 1.357541 -0.79484 122 79 63
-0.114483 1.356178 -0.79353 122 79 63
-0.107778 1.351773 -0.790688 123 78 62
-0.101023 1.347918 -0.788131 124 78 62
-0.093531 1.349091 -0.788118 124 78 62
-0.08548 1.353638 -0.789806 126 79 63
-0.077331 1.358377 -0.791591 125 78 60
-0.069671 1.359792 -0.791702 125 78 60
-0.06197 1.36127 -0.791846 126 79 61
-0.053303 1.367982 -0.794618 126 79 61
-0.043277 1.38161 -0.800857 125 78 60
-0.035584 1.382071 -0.800485 125 78 60
-0.028554 1.379047 -0.798369 125 78 60
-0.023282 1.367365 -0.791924 126 78 60
-0.015925 1.366407 -0.79085 126 79 61
-0.007617 1.369987 -0.792043 126 78 60
0.000773 1.373757 -0.793325 127 80 60
0.009042 1.376813 -0.794247 127 79 59
0.01818 1.383571 -0.797008 125 78 58
0.026141 1.385007 -0.79711 124 77 58
0.033655 1.38458 -0.79628 124 76 59
0.042307 1.388918 -0.797813 124 76 56
0.050325 1.390633 -0.798033 125 77 57
0.059698 1.397718 -0.800909 125 77 57
0.067387 1.398192 -0.800495 124 76 56
0.077864 1.409316 -0.805344 126 77 58
0.087005 1.415269 -0.807616 125 77 57
0.0939 1.413075 -0.805846 125 77 57
0.104545 1.424528 -0.810804 126 78 58
0.111651 1.423473 -0.809571 125 76 57
0.119376 1.424854 -0.809527 123 75 57
0.130136 1.436715 -0.814624 121 74 54
0.151783 1.484596 -0.837402 119 70 53
0.152014 1.461397 -0.825214 119 70 53
0.176884 1.518415 -0.85238 118 69 52
-0.437378 1.457337 -0.887631 179 175 163
-0.429308 1.453359 -0.884606 179 175 163
-0.419932 1.433032 -0.872865 179 175 163
-0.41259 1.435934 -0.873537 176 174 161
-0.405753 1.446051 -0.878051 173 171 158
-0.399578 1.4674 -0.888531 169 167 154
-0.392837 1.483101 -0.89599 165 164 152
-0.384084 1.466278 -0.886178 164 163 151
-0.361443 1.476618 -0.889052 157 157 145
-0.354584 1.500613 -0.900869 93 93 80
-0.347484 1.524736 -0.91273 46 46 34
-0.339724 1.532853 -0.916133 33 33 23
-0.331891 1.541308 -0.91971 27 30 22
-0.315588 1.521284 -0.907444 21 24 16
-0.307674 1.526471 -0.909315 8 11 4
-0.299707 1.524534 -0.907451 2 4 0
-0.291423 1.588099 -0.939905 10 11 5
-0.275039 1.575814 -0.931748 10 11 5
-0.266134 1.608606 -0.948019 8 10 4
-0.236741 1.337075 -0.80269 10 11 5
-0.23009 1.329995 -0.798323 8 9 3
-0.223309 1.326352 -0.795751 8 9 3
-0.216468 1.324141 -0.793929 10 11 5
-0.209883 1.318353 -0.790264 7 8 2
-0.20323 1.314196 -0.787453 7 8 2
-0.196258 1.314561 -0.786988 7 8 2
-0.187081 1.341256 -0.800113 17 12 3
-0.179562 1.345888 -0.801844 36 23 10
-0.17201 1.350226 -0.803424 57 33 18
-0.165188 1.346586 -0.8009 61 33 16
-0.158452 1.342344 -0.798074 68 36 18
-0.151142 1.343629 -0.798096 82 45 26
-0.143768 1.345208 -0.798273 105 65 47
-0.137128 1.340415 -0.795186 114 73 55
-0.130081 1.339139 -0.79391 119 77 60
-0.121871 1.346727 -0.797176 121 78 62
-0.114855 1.344824 -0.795587 121 77 61
-0.108161 1.340673 -0.792854 121 78 61
-0.101264 1.338084 -0.790927 122 77 61
-0.093904 1.33861 -0.790595 123 77 61
-0.086429 1.339725 -0.790565 123 77 61
-0.079375 1.338075 -0.789131 125 78 62
-0.07072 1.345937 -0.792539 126 79 63
-0.063229 1.346534 -0.792251 125 78 60
-0.057635 1.336438 -0.786534 125 78 60
-0.050186 1.336901 -0.786185 126 79 61
-0.039148 1.356128 -0.79535 126 79 63
-0.032047 1.354122 -0.793744 124 77 59
-0.024852 1.352663 -0.792416 125 78 60
-0.017904 1.350054 -0.790508 125 78 60
-0.009764 1.353179 -0.791499 125 78 60
-0.001102 1.358551 -0.79362 124 77 59
0.006973 1.361046 -0.794282 124 77 58
0.014719 1.362019 -0.794172 125 78 58
0.022398 1.362716 -0.793919 124 77 57
0.029411 1.360669 -0.79228 124 77 59
0.038574 1.367579 -0.79514 125 76 57
0.047846 1.374733 -0.798109 124 75 58
0.055592 1.375759 -0.797989 124 75 58
0.06434 1.380726 -0.799836 125 76 58
0.069867 1.373589 -0.795608 125 76 57
0.081312 1.38869 -0.802503 125 76 59
0.09235 1.401963 -0.808458 125 77 58
0.099851 1.40246 -0.808009 125 77 58
0.109437 1.41045 -0.811285 125 77 57
0.118684 1.41728 -0.813962 126 78 58
0.128611 1.426459 -0.817787 123 76 56
0.136838 1.43003 -0.8188 122 73 55
0.14576 1.436078 -0.821024 120 71 54
0.151987 1.433656 -0.819024 119 70 53
-0.44441 1.454627 -0.895792 179 175 163
-0.437195 1.460167 -0.897875 178 174 162
-0.428692 1.451608 -0.89234 178 174 162
-0.410899 1.420482 -0.873767 177 173 161
-0.403647 1.424031 -0.874805 173 171 158
-0.397841 1.449524 -0.887644 169 167 155
-0.391136 1.46468 -0.894904 164 164 152
-0.384496 1.483611 -0.904178 162 160 148
-0.367689 1.45759 -0.888476 160 160 148
-0.361167 1.485188 -0.902372 154 155 143
-0.354436 1.51481 -0.917321 46 50 37
-0.346596 1.518135 -0.918211 41 42 33
-0.338809 1.524702 -0.92083 28 30 23
-0.330811 1.524078 -0.91962 27 30 23
-0.322563 1.506228 -0.909254 26 29 22
-0.31448 1.486126 -0.897718 23 26 19
-0.306708 1.487155 -0.897425 18 20 14
-0.26594 1.574162 -0.939255 8 11 4
-0.256678 1.61272 -0.958743 8 10 3
-0.237325 1.679321 -0.992079 7 10 3
-0.222061 1.3326 -0.80678 10 11 5
-0.215774 1.320814 -0.799924 9 10 4
-0.209276 1.313788 -0.795577 8 9 3
-0.202693 1.308804 -0.792309 8 9 3
-0.196071 1.304833 -0.78958 7 8 2
-0.189539 1.300166 -0.786498 7 8 2
-0.182024 1.306944 -0.789392 6 7 0
-0.174411 1.313855 -0.792354 10 10 1
-0.166074 1.327178 -0.798651 33 22 8
-0.159362 1.323538 -0.796122 50 29 15
-0.15217 1.324476 -0.795979 60 31 17
-0.144524 1.329117 -0.797763 71 36 19
-0.137556 1.327614 -0.796361 80 43 27
-0.130682 1.325367 -0.794579 101 62 45
-0.12307 1.328788 -0.795739 115 75 58
-0.115574 1.330967 -0.796257 121 77 61
-0.108467 1.330132 -0.795221 122 76 60
-0.101116 1.330889 -0.795011 121 75 59
-0.094112 1.329226 -0.793556 123 77 61
-0.087381 1.325846 -0.791221 121 76 60
-0.081076 1.319995 -0.78762 123 77 61
-0.074665 1.315049 -0.784493 124 77 61
-0.066694 1.31925 -0.786074 124 77 61
-0.058899 1.32214 -0.786981 124 77 60
-0.051357 1.323432 -0.787067 125 78 59
-0.043424 1.326641 -0.788136 126 79 63
-0.035762 1.32824 -0.788379 126 79 62
-0.027109 1.334621 -0.791068 124 77 59
-0.019463 1.335795 -0.791088 124 77 59
-0.011587 1.337981 -0.791623 124 77 59
-0.002962 1.343481 -0.793846 125 78 60
0.004883 1.345264 -0.794166 123 77 59
0.012765 1.34716 -0.794538 123 76 58
0.02015 1.346912 -0.793813 123 76 57
0.027761 1.347689 -0.793604 124 76 59
0.035196 1.347812 -0.793057 126 78 59
0.043928 1.353198 -0.795175 126 78 58
0.051896 1.355522 -0.795727 124 75 58
0.058294 1.351923 -0.793265 124 75 57
0.067526 1.35923 -0.796321 125 76 59
0.074871 1.35954 -0.795818 125 76 59
0.086467 1.375334 -0.803132 125 76 59
0.093942 1.376242 -0.8029 126 77 60
0.101857 1.378904 -0.803538 125 76 59
0.115202 1.400237 -0.813571 125 76 58
0.123506 1.40427 -0.814857 123 75 56
0.131152 1.406317 -0.815124 123 75 55
0.139746 1.411696 -0.817048 122 74 55
0.146805 1.412356 -0.816581 121 72 55
-0.443908 1.453947 -0.904167 177 174 160
-0.436367 1.456138 -0.904442 176 172 160
-0.429409 1.465099 -0.908416 175 172 160
-0.419769 1.442598 -0.895223 174 172 159
-0.403048 1.422796 -0.88265 171 169 156
-0.395546 1.423208 -0.881997 170 168 155
-0.38983 1.452555 -0.897061 164 163 151
-0.370462 1.531332 -0.93706 148 151 137
-0.362803 1.541168 -0.941464 49 51 40
-0.34622 1.528581 -0.932852 33 35 28
-0.337887 1.516373 -0.925379 27 29 23
-0.33022 1.531225 -0.932492 25 28 21
-0.322193 1.531785 -0.93191 21 24 17
-0.313911 1.505559 -0.916945 20 23 16
-0.30597 1.495267 -0.910565 13 16 9
-0.289578 1.608769 -0.969661 10 12 5
-0.255849 1.60784 -0.965626 8 11 4
-0.247277 1.611844 -0.966892 8 10 4
-0.208203 1.315902 -0.804407 8 11 4
-0.201957 1.306013 -0.798514 8 9 3
-0.195367 1.301643 -0.795551 7 9 3
-0.188661 1.299049 -0.793535 7 9 2
-0.182222 1.293662 -0.790054 5 8 0
-0.175433 1.292412 -0.788763 7 9 2
-0.168223 1.295361 -0.789688 7 9 1
-0.160543 1.302315 -0.792721 11 9 1
-0.152663 1.310277 -0.796282 36 20 10
-0.144856 1.316757 -0.799063 57 30 18
-0.137834 1.316097 -0.798099 61 31 18
-0.130795 1.315499 -0.797174 64 32 17
-0.123583 1.316135 -0.796899 76 40 24
-0.116326 1.316922 -0.796708 103 61 46
-0.108745 1.319798 -0.797612 115 72 55
-0.101461 1.320353 -0.797306 121 75 59
-0.094486 1.318757 -0.795881 122 77 60
-0.087875 1.314892 -0.793279 119 75 58
-0.081698 1.30855 -0.789394 120 75 58
-0.075252 1.304107 -0.786505 123 77 61
-0.068204 1.303277 -0.785501 123 77 61
-0.060775 1.304525 -0.785579 124 78 61
-0.05263 1.30947 -0.787577 123 76 58
-0.045501 1.308801 -0.78666 125 78 61
-0.038137 1.309309 -0.786354 125 78 62
-0.02973 1.314889 -0.788674 125 78 61
-0.021148 1.320998 -0.791262 124 77 59
-0.013556 1.322169 -0.791291 125 78 60
-0.005904 1.323565 -0.791434 125 78 60
0.00161 1.324309 -0.791235 122 77 58
0.009554 1.326923 -0.791997 122 77 58
0.018552 1.333935 -0.795017 122 76 58
0.025797 1.333464 -0.794174 123 76 58
0.033093 1.333317 -0.793492 125 76 59
0.039919 1.331439 -0.791913 124 76 57
0.047116 1.331211 -0.791175 126 78 58
0.055376 1.335189 -0.792584 125 76 59
0.063323 1.338024 -0.793394 125 77 57
0.07116 1.340547 -0.79403 124 76 56
0.080978 1.350286 -0.798341 125 77 58
0.090136 1.357586 -0.801384 124 75 58
0.098404 1.361815 -0.802839 125 76 59
0.107369 1.368537 -0.805545 125 76 59
0.117948 1.38071 -0.811005 124 75 58
0.125477 1.38279 -0.811302 123 74 55
0.133377 1.386325 -0.81232 123 75 55
0.145661 1.404028 -0.820509 123 74 55
-0.443411 1.453356 -0.912623 175 171 159
-0.435812 1.45509 -0.912649 175 171 159
-0.428313 1.458038 -0.913348 173 171 158
-0.419939 1.450599 -0.908321 172 170 157
-0.411743 1.444307 -0.903941 170 168 155
-0.403074 1.430353 -0.895358 169 167 154
-0.394696 1.418444 -0.887922 169 167 154
-0.386845 1.412943 -0.884025 166 165 153
-0.381698 1.454622 -0.906011 160 160 148
-0.369634 1.527415 -0.944068 151 153 140
-0.362044 1.539006 -0.949483 46 49 38
-0.350933 1.453308 -0.901774 152 154 141
-0.343388 1.45711 -0.902984 74 76 63
-0.337799 1.542089 -0.948419 25 28 21
-0.329934 1.555012 -0.954548 24 27 20
-0.321758 1.555216 -0.953755 22 25 18
-0.297168 1.594748 -0.972503 11 14 8
-0.279958 1.631926 -0.990816 8 11 5
-0.263825 1.586072 -0.964261 9 11 6
-0.256049 1.565431 -0.952265 8 10 5
-0.24733 1.579932 -0.959226 8 10 5
-0.236048 1.657584 -1.00016 6 9 2
-0.199358 1.68623 -1.01202 7 9 4
-0.192887 1.648084 -0.990724 8 9 4
-0.199337 1.328282 -0.818119 8 11 4
-0.194326 1.302541 -0.803705 8 10 4
-0.187797 1.297632 -0.800437 7 10 3
-0.181461 1.291028 -0.796275 6 9 2
-0.174999 1.286338 -0.793144 7 9 2
-0.168245 1.284892 -0.79175 7 10 3
-0.161721 1.281302 -0.789223 6 8 2
-0.154188 1.286937 -0.791603 8 7 2
-0.146429 1.293865 -0.79467 15 10 2
-0.138432 1.302 -0.798375 40 22 12
-0.131071 1.304367 -0.799023 55 28 15
-0.123965 1.304506 -0.798494 62 32 18
-0.116659 1.305964 -0.798667 68 33 19
-0.11013 1.301802 -0.795874 83 42 28
-0.102947 1.302211 -0.795503 101 58 42
-0.094934 1.307834 -0.797885 117 74 57
-0.088337 1.304158 -0.795365 119 76 60
-0.081928 1.299503 -0.792336 119 76 59
-0.075349 1.296045 -0.789944 120 75 59
-0.068758 1.292794 -0.787666 123 77 61
-0.061858 1.291364 -0.78635 122 76 60
-0.054746 1.291081 -0.785639 123 78 59
-0.047198 1.293025 -0.786097 124 77 59
-0.039811 1.294013 -0.786053 123 77 61
-0.032351 1.295279 -0.786153 125 78 62
-0.023682 1.302221 -0.789221 125 78 61
-0.015849 1.304931 -0.790069 124 77 59
-0.008925 1.303407 -0.788701 124 77 59
-0.001251 1.305302 -0.789116 123 76 58
0.007244 1.310691 -0.791346 122 77 58
0.015181 1.313551 -0.792249 122 75 57
0.023836 1.319319 -0.794657 122 75 57
0.030677 1.317638 -0.79318 121 74 56
0.037546 1.316257 -0.791852 122 75 56
0.044925 1.317048 -0.791644 123 75 56
0.052936 1.320359 -0.792732 124 76 58
0.060781 1.323103 -0.793512 125 77 57
0.069234 1.328155 -0.795473 125 77 57
0.076663 1.329588 -0.795544 125 77 57
0.085391 1.335757 -0.798047 123 75 56
0.094174 1.342158 -0.800649 124 75 58
0.102468 1.346959 -0.802404 125 75 58
0.10952 1.347766 -0.802081 125 75 58
0.118222 1.354248 -0.80466 124 75 57
0.127158 1.361599 -0.807662 123 75 55
0.131925 1.355841 -0.80391 123 75 55
-0.450416 1.450067 -0.920551 173 171 158
-0.443346 1.457243 -0.923619 173 170 158
-0.435325 1.454837 -0.921329 173 169 157
-0.428348 1.463975 -0.925491 171 168 155
-0.42085 1.467794 -0.926682 168 166 153
-0.412809 1.464917 -0.924145 167 166 153
-0.404441 1.456891 -0.918754 165 164 152
-0.395439 1.437846 -0.907257 163 163 151
-0.386553 1.417269 -0.894939 162 163 150
-0.359073 1.48144 -0.92691 154 156 143
-0.350581 1.462266 -0.915433 145 147 134
-0.33616 1.504787 -0.937102 28 29 23
-0.329135 1.553267 -0.962884 24 27 20
-0.31301 1.583437 -0.977632 16 19 12
-0.304669 1.584587 -0.977348 12 15 9
-0.279715 1.576886 -0.970435 10 12 7
-0.235959 1.632466 -0.996329 7 10 3
-0.206068 1.705566 -1.033374 9 10 4
-0.18022 1.293531 -0.805272 7 10 3
-0.174072 1.2853 -0.800205 6 9 2
-0.168183 1.275265 -0.794181 5 8 1
-0.161588 1.272667 -0.792169 6 8 2
-0.155157 1.268732 -0.789448 5 8 2
-0.148643 1.265737 -0.78724 6 8 3
-0.141453 1.268358 -0.788049 7 7 1
-0.13226 1.28617 -0.796998 17 12 2
-0.124635 1.290765 -0.798863 43 23 13
-0.117884 1.288636 -0.797132 55 29 17
-0.110917 1.288041 -0.796229 60 30 17
-0.104699 1.282413 -0.792644 68 32 19
-0.097888 1.280874 -0.791248 79 40 25
-0.090437 1.28331 -0.791976 97 55 39
-0.082826 1.28645 -0.793079 113 71 55
-0.075215 1.289317 -0.794038 119 75 59
-0.06863 1.286164 -0.791797 121 76 59
-0.062276 1.281872 -0.788956 121 75 59
-0.055336 1.280882 -0.787872 121 75 59
-0.047978 1.282048 -0.787933 123 76 58
-0.041143 1.280501 -0.786556 124 77 60
-0.034792 1.276662 -0.783967 124 77 59
-0.026594 1.281767 -0.786111 125 78 60
-0.017345 1.291472 -0.790681 125 78 60
-0.010151 1.291456 -0.790105 124 77 59
-0.003223 1.290316 -0.788933 122 76 58
0.005319 1.296204 -0.791462 120 75 56
0.013076 1.2986 -0.792142 120 75 56
0.020854 1.301065 -0.792849 122 75 57
0.028432 1.302728 -0.793125 121 74 56
0.035506 1.302472 -0.792383 122 75 57
0.043096 1.304353 -0.792754 122 74 56
0.05038 1.305173 -0.792555 122 75 57
0.05811 1.307795 -0.793288 122 75 55
0.065376 1.308841 -0.793182 124 76 56
0.074228 1.315704 -0.796103 125 77 57
0.081192 1.315974 -0.795558 125 77 57
0.087896 1.315609 -0.794666 125 74 55
0.094824 1.316282 -0.7943 124 73 56
0.104127 1.325092 -0.798155 125 75 58
0.112275 1.330154 -0.800033 123 74 57
0.122137 1.340875 -0.804829 124 76 56
0.131691 1.350623 -0.80909 124 74 53
-0.450209 1.452258 -0.930645 169 170 156
-0.443262 1.461029 -0.934646 169 169 155
-0.435383 1.460556 -0.933422 171 169 156
-0.427985 1.46544 -0.935225 169 167 154
-0.420219 1.466314 -0.934768 167 165 153
-0.412498 1.467755 -0.934636 164 164 152
-0.40407 1.459304 -0.928947 163 163 151
-0.387363 1.440003 -0.916273 161 161 149
-0.358648 1.487517 -0.939237 146 148 135
-0.350614 1.483018 -0.935821 81 83 70
-0.343823 1.519821 -0.955434 33 34 25
-0.336016 1.52974 -0.960043 26 29 22
-0.311935 1.552747 -0.970097 21 24 17
-0.303686 1.535369 -0.95956 19 22 14
-0.295568 1.537302 -0.959745 14 16 10
-0.28722 1.565819 -0.97464 11 13 8
-0.244597 1.601611 -0.989969 7 10 4
-0.187824 1.689248 -1.032816 10 11 5
-0.178121 1.69914 -1.037355 10 11 5
-0.17066 1.678122 -1.025006 10 11 5
-0.171288 1.303159 -0.817578 6 9 2
-0.167128 1.275287 -0.801786 6 9 2
-0.161107 1.267237 -0.796795 7 9 3
-0.154668 1.263499 -0.794159 6 9 3
-0.147996 1.261927 -0.792707 5 8 2
-0.141507 1.258906 -0.790476 6 9 3
-0.135065 1.255653 -0.788128 8 9 4
-0.128015 1.257051 -0.788304 9 9 2
-0.11849 1.275824 -0.797875 18 14 4
-0.11286 1.266432 -0.792223 31 19 9
-0.105481 1.269152 -0.793119 50 27 16
-0.098849 1.266826 -0.791296 61 30 18
-0.093235 1.258305 -0.786142 68 32 19
-0.084023 1.271674 -0.792782 79 41 25
-0.076138 1.27647 -0.794802 103 61 44
-0.068598 1.278974 -0.795588 116 70 54
-0.062743 1.272132 -0.791355 121 75 59
-0.055829 1.271209 -0.790306 121 75 59
-0.048535 1.272242 -0.790307 122 77 58
-0.042896 1.264957 -0.785851 123 76 58
-0.036489 1.261759 -0.783589 124 77 59
-0.027463 1.271075 -0.788021 123 76 58
-0.021457 1.26605 -0.784779 123 76 58
-0.011942 1.277028 -0.790084 123 76 58
-0.002987 1.285064 -0.793806 122 75 57
0.004435 1.286233 -0.793854 121 76 57
0.0093 1.276758 -0.788226 121 76 57
0.018133 1.283985 -0.791489 121 75 56
0.025875 1.286657 -0.792315 121 74 56
0.033321 1.288188 -0.792524 122 75 57
0.039979 1.286797 -0.79117 122 75 57
0.046452 1.284937 -0.789557 122 75 57
0.054537 1.289262 -0.791211 121 74 56
0.062081 1.291677 -0.791837 122 75 56
0.069358 1.293286 -0.792019 124 76 57
0.078454 1.301399 -0.795622 124 76 56
0.084819 1.300167 -0.794268 126 75 56
0.091746 1.301139 -0.79406 126 75 56
0.100542 1.308537 -0.797219 126 75 58
0.109171 1.315457 -0.8001 125 74 56
0.115832 1.316183 -0.799701 124 74 55
0.129715 1.339959 -0.81138 123 73 52
-0.449498 1.449602 -0.938035 167 168 154
-0.442481 1.457718 -0.941707 167 168 154
-0.43486 1.460067 -0.942082 168 166 153
-0.425943 1.447588 -0.934006 167 165 152
-0.418017 1.445544 -0.931895 167 165 153
-0.410417 1.447385 -0.932003 163 163 151
-0.402388 1.443276 -0.928734 162 162 150
-0.394673 1.443176 -0.927751 162 162 150
-0.388161 1.462969 -0.938054 159 159 147
-0.380425 1.464062 -0.937748 157 157 145
-0.367364 1.521162 -0.968184 145 147 134
-0.350607 1.503415 -0.956301 42 44 33
-0.335307 1.531743 -0.970414 26 29 22
-0.32725 1.535283 -0.971485 26 29 22
-0.3028 1.513186 -0.956381 21 24 17
-0.286208 1.579158 -0.991518 11 13 8
-0.261912 1.545703 -0.970183 11 14 7
-0.253079 1.567196 -0.981292 10 12 7
-0.222513 1.690705 -1.047305 9 11 6
-0.195422 1.69221 -1.045441 10 11 5
-0.184395 1.722284 -1.061195 10 11 6
-0.157423 1.291105 -0.817488 6 9 2
-0.153315 1.265745 -0.802953 6 9 2
-0.147339 1.258126 -0.798174 7 10 3
-0.141343 1.251202 -0.793789 9 9 4
-0.134781 1.24907 -0.792039 9 10 4
-0.12865 1.243828 -0.788594 9 10 4
-0.123407 1.232606 -0.781892 9 10 4
-0.114378 1.247872 -0.789666 8 9 1
-0.105692 1.259691 -0.795551 19 15 5
-0.098821 1.259104 -0.794667 34 20 9
-0.093425 1.249452 -0.788849 51 28 16
-0.087042 1.246184 -0.786519 61 31 16
-0.078955 1.25282 -0.789579 65 32 15
-0.070653 1.260175 -0.793026 80 39 22
-0.063938 1.258483 -0.791558 103 59 43
-0.056825 1.258925 -0.791249 116 71 54
-0.04999 1.257889 -0.79014 119 75 56
-0.043635 1.254508 -0.787761 121 76 57
-0.037025 1.252528 -0.786143 122 77 58
-0.030608 1.249747 -0.784092 122 77 58
-0.022103 1.256665 -0.787282 123 77 58
-0.01831 1.242262 -0.77895 123 76 58
-0.010045 1.248058 -0.781524 123 76 58
-0.002107 1.252256 -0.783226 123 76 58
0.007214 1.262085 -0.787951 121 76 57
0.01425 1.262292 -0.787482 122 75 57
0.021211 1.262314 -0.786904 122 75 57
0.030406 1.271155 -0.791055 122 75 57
0.037648 1.272348 -0.791081 122 75 57
0.044358 1.271678 -0.790096 121 74 56
0.050986 1.270932 -0.789058 121 74 56
0.059754 1.278103 -0.792244 122 75 57
0.066659 1.278674 -0.791879 122 75 57
0.074813 1.283793 -0.793927 123 75 56
0.083596 1.291132 -0.797138 124 75 55
0.089975 1.290462 -0.796054 126 76 56
0.098973 1.298718 -0.799706 126 75 56
0.106254 1.301458 -0.800396 125 74 55
0.113517 1.304369 -0.801155 123 74 54
0.118824 1.301378 -0.798759 121 73 53
-0.456014 1.441463 -0.943243 164 165 151
-0.449192 1.450957 -0.947755 165 166 152
-0.44137 1.45104 -0.946826 165 166 152
-0.434255 1.458739 -0.950297 164 164 150
-0.424354 1.434932 -0.935607 165 163 150
-0.416316 1.430891 -0.932333 164 163 150
-0.407441 1.415055 -0.922289 164 163 151
-0.393415 1.432586 -0.930508 161 161 149
-0.387266 1.457962 -0.944128 157 157 145
-0.374763 1.520555 -0.978063 157 157 145
-0.35851 1.519319 -0.975453 53 55 44
-0.35021 1.512928 -0.97087 40 42 31
-0.334505 1.530139 -0.978805 26 29 22
-0.31828 1.533256 -0.978729 23 26 19
-0.31004 1.519304 -0.969907 23 26 19
-0.301991 1.533409 -0.976998 22 24 19
-0.293765 1.555056 -0.988347 16 18 13
-0.285161 1.593254 -1.009033 11 13 8
-0.268091 1.600538 -1.011317 13 14 9
-0.221316 1.691641 -1.05801 8 10 5
-0.145158 1.26686 -0.810585 10 10 5
-0.140248 1.250857 -0.801126 10 10 5
-0.134671 1.241128 -0.795159 9 10 4
-0.129486 1.229198 -0.787989 8 9 3
-0.123079 1.226655 -0.786021 10 11 5
-0.116619 1.224549 -0.784301 10 11 5
-0.110279 1.221725 -0.782191 10 11 5
-0.101963 1.231437 -0.786996 10 11 3
-0.093214 1.243042 -0.792838 17 14 3
-0.087276 1.237288 -0.789122 35 22 9
-0.080188 1.238377 -0.789177 51 28 13
-0.071689 1.247129 -0.793442 61 31 13
-0.066227 1.239031 -0.788452 68 32 15
-0.059351 1.238723 -0.787744 74 34 17
-0.05267 1.237411 -0.786485 90 49 32
-0.04462 1.242889 -0.788946 113 71 52
-0.037485 1.243685 -0.788839 120 75 56
-0.030879 1.241974 -0.787359 122 77 58
-0.025113 1.236553 -0.78385 122 77 58
-0.01891 1.23337 -0.781565 122 77 58
-0.011851 1.234097 -0.78141 121 76 57
-0.003359 1.240919 -0.78457 122 76 58
0.003739 1.241751 -0.784456 122 76 57
0.012418 1.249042 -0.787847 121 75 57
0.019808 1.25104 -0.788345 122 75 57
0.027373 1.253769 -0.789228 121 74 56
0.034891 1.256367 -0.790026 123 76 58
0.043535 1.263227 -0.79312 122 75 57
0.051539 1.267679 -0.794889 122 75 57
0.056403 1.260952 -0.790589 122 75 57
0.064982 1.267744 -0.79359 121 74 56
0.074019 1.276118 -0.797421 123 75 57
0.081579 1.27946 -0.798511 121 73 53
0.087207 1.276535 -0.796201 124 74 55
0.094406 1.279144 -0.796856 125 74 55
0.103752 1.288898 -0.801331 124 73 54
0.111273 1.292866 -0.802666 125 74 54
0.116164 1.288811 -0.799673 123 74 54
-0.456205 1.447243 -0.955566 164 165 150
-0.448341 1.44703 -0.95445 164 165 151
-0.441241 1.454568 -0.957866 163 164 151
-0.435964 1.482869 -0.973383 161 162 149
-0.426419 1.464826 -0.96188 161 161 149
-0.416153 1.435301 -0.943726 161 162 149
-0.406788 1.413429 -0.930066 161 161 149
-0.398366 1.401594 -0.922267 160 160 148
-0.395622 1.475706 -0.964319 158 158 146
-0.379484 1.469642 -0.958903 155 155 143
-0.365198 1.502775 -0.976157 153 155 142
-0.357303 1.506223 -0.977199 79 81 68
-0.348552 1.48442 -0.963701 48 50 38
-0.340788 1.490066 -0.966029 36 38 28
-0.333881 1.537027 -0.992104 27 29 22
-0.32604 1.557837 -1.003116 24 27 20
-0.317298 1.519188 -0.980006 25 28 21
-0.292779 1.575703 -1.009611 16 18 13
-0.259561 1.561625 -0.997961 12 14 9
-0.210474 1.703726 -1.074182 10 11 6
-0.201231 1.705895 -1.074496 10 11 5
-0.192039 1.706705 -1.074048 9 11 6
-0.133236 1.243168 -0.803808 9 10 4
-0.128771 1.225885 -0.793575 9 10 4
-0.122252 1.224141 -0.792038 10 11 6
-0.115877 1.22145 -0.78998 10 11 6
-0.111068 1.208728 -0.782337 11 12 6
-0.104625 1.207005 -0.780836 10 12 6
-0.097965 1.206624 -0.780087 9 12 5
-0.090485 1.210997 -0.781986 10 12 4
-0.082687 1.216832 -0.784695 16 12 3
-0.075683 1.217898 -0.784754 29 16 6
-0.067887 1.223069 -0.787091 48 26 12
-0.061819 1.218963 -0.784282 60 30 15
-0.054527 1.221216 -0.784998 66 31 12
-0.047331 1.222862 -0.785377 71 34 16
-0.040067 1.224745 -0.785883 94 54 36
-0.031506 1.232561 -0.789665 116 72 54
-0.025313 1.229291 -0.787314 120 75 56
-0.018703 1.228063 -0.78609 121 75 57
-0.01439 1.217053 -0.779466 121 76 57
-0.005987 1.223844 -0.782655 121 75 58
0.001046 1.224779 -0.782606 122 77 58
0.006692 1.220201 -0.779515 121 76 57
0.01796 1.238072 -0.788756 122 75 57
0.023165 1.231974 -0.784809 122 75 57
0.0331 1.244144 -0.790877 123 76 58
0.037481 1.235454 -0.785487 122 75 57
0.0475 1.247766 -0.791591 123 76 58
0.053015 1.243787 -0.788756 122 75 57
0.060116 1.245729 -0.789144 121 74 56
0.071669 1.263145 -0.797962 122 75 57
0.078167 1.263159 -0.797252 122 74 55
0.084557 1.263094 -0.796479 122 74 55
0.090771 1.262746 -0.795533 122 74 54
0.09692 1.262504 -0.794626 124 73 54
0.108313 1.279174 -0.802882 124 73 55
0.116992 1.287208 -0.806414 124 73 52
-0.455766 1.447224 -0.964577 161 162 148
-0.448378 1.451873 -0.966321 161 162 149
-0.440897 1.455945 -0.967725 160 162 148
-0.434086 1.467747 -0.973684 160 161 148
-0.425566 1.460904 -0.968662 159 159 147
-0.418516 1.471355 -0.973822 159 159 147
-0.408213 1.439665 -0.954229 159 159 147
-0.394406 1.466084 -0.967802 157 157 145
-0.387395 1.480849 -0.975484 154 154 142
-0.370112 1.451916 -0.956671 155 155 143
-0.363138 1.470783 -0.966748 158 158 146
-0.355281 1.471292 -0.966111 151 152 139
-0.325077 1.549234 -1.007674 24 27 21
-0.316858 1.554183 -1.009599 24 26 21
-0.275112 1.570365 -1.014321 12 14 9
-0.266644 1.574142 -1.015591 13 15 10
-0.25918 1.537807 -0.993778 13 15 10
-0.221072 1.647044 -1.052974 10 12 7
-0.114243 1.825081 -1.145575 3 5 0
-0.092934 1.837895 -1.151065 3 5 0
-0.082254 1.843371 -1.153287 5 4 0
-0.121458 1.221314 -0.797891 10 11 6
-0.114705 1.221148 -0.797242 8 10 5
-0.109481 1.211066 -0.79101 8 10 5
-0.103711 1.204985 -0.787043 8 10 5
-0.097641 1.201039 -0.784287 7 10 4
-0.091573 1.197259 -0.781631 9 12 5
-0.084638 1.19854 -0.781823 10 11 5
-0.076103 1.208426 -0.786847 12 10 4
-0.070223 1.203619 -0.783623 14 9 2
-0.062903 1.206464 -0.784692 30 17 6
-0.055388 1.210106 -0.786205 49 24 13
-0.049022 1.207943 -0.784465 58 29 12
-0.042287 1.207649 -0.78377 60 29 10
-0.034493 1.212276 -0.785823 73 36 17
-0.026746 1.216491 -0.787638 94 52 34
-0.018428 1.223051 -0.790753 115 71 55
-0.011616 1.222906 -0.790119 118 74 57
-0.005821 1.218586 -0.787153 119 74 57
-5e-06 1.21464 -0.784391 120 75 57
0.005532 1.209865 -0.781163 122 76 57
0.011341 1.206486 -0.778705 121 74 56
0.019917 1.214017 -0.782294 121 74 56
0.028582 1.221739 -0.785969 122 74 56
0.03595 1.22456 -0.786908 123 75 57
0.042417 1.224217 -0.786077 122 75 57
0.05031 1.229162 -0.788155 121 74 56
0.056845 1.229432 -0.787628 122 75 57
0.065055 1.235673 -0.790379 121 74 56
0.074361 1.245647 -0.795162 121 74 56
0.082505 1.251727 -0.797769 122 73 56
0.088615 1.25128 -0.796759 123 74 56
0.095764 1.254475 -0.79773 121 73 55
0.104633 1.263312 -0.801773 121 73 53
0.112128 1.267933 -0.803473 120 72 52
-0.462251 1.43863 -0.969523 161 162 146
-0.455339 1.447383 -0.97374 160 161 147
-0.447976 1.452489 -0.975775 159 160 148
-0.440765 1.459623 -0.979019 157 159 146
-0.432197 1.452481 -0.97376 158 160 146
-0.424516 1.454731 -0.974104 158 158 146
-0.419345 1.488623 -0.993248 157 157 145
-0.409834 1.468913 -0.980548 157 157 145
-0.400687 1.451291 -0.969118 158 158 146
-0.393056 1.454379 -0.96998 157 157 145
-0.361017 1.436915 -0.955888 156 156 144
-0.348828 1.539059 -1.014138 32 34 28
-0.332056 1.52601 -1.00455 28 29 24
-0.307648 1.547566 -1.014355 23 25 20
-0.258204 1.536783 -1.002615 13 15 10
-0.124927 1.800918 -1.143726 2 4 0
-0.054413 1.889102 -1.188938 15 11 1
-0.108076 1.212115 -0.799017 8 10 5
-0.102775 1.203037 -0.793308 8 10 5
-0.097137 1.196495 -0.789052 7 10 4
-0.091697 1.189162 -0.784356 8 10 4
-0.085246 1.187889 -0.783109 10 11 5
-0.078866 1.186261 -0.781664 7 9 4
-0.072777 1.183157 -0.779386 6 8 2
-0.064539 1.191198 -0.783423 7 9 2
-0.05557 1.202418 -0.789253 13 9 1
-0.05002 1.196469 -0.785361 25 15 5
-0.043898 1.193537 -0.783177 43 24 10
-0.036538 1.196468 -0.784303 57 30 11
-0.031173 1.190349 -0.780316 61 29 11
-0.020265 1.208801 -0.790186 78 38 21
-0.010705 1.220701 -0.796339 105 62 46
-0.005566 1.213699 -0.791834 113 71 54
0.000255 1.209895 -0.789126 117 73 55
0.005481 1.204004 -0.785237 118 73 54
0.010961 1.199493 -0.782119 120 73 55
0.018419 1.202872 -0.78342 121 74 56
0.025371 1.204395 -0.783664 121 74 54
0.030578 1.199639 -0.780375 122 74 54
0.041056 1.214242 -0.787909 122 75 57
0.0485 1.217803 -0.789237 122 75 57
0.055563 1.22015 -0.789866 121 74 56
0.061749 1.219675 -0.788899 122 75 57
0.070723 1.228823 -0.793277 121 74 56
0.079291 1.23661 -0.796866 122 74 56
0.085966 1.238297 -0.797033 121 72 55
0.093201 1.242018 -0.798307 122 73 56
0.103122 1.254381 -0.804349 121 72 55
0.109581 1.255972 -0.804384 120 71 54
-0.461745 1.437939 -0.978177 159 160 145
-0.454757 1.446138 -0.982105 158 159 145
-0.447639 1.453804 -0.985706 156 158 145
-0.43919 1.448292 -0.981366 157 159 146
-0.431174 1.446787 -0.979453 156 158 145
-0.423416 1.447993 -0.979177 158 158 146
-0.407766 1.448732 -0.977639 157 157 145
-0.399247 1.43886 -0.970746 157 157 145
-0.388322 1.389165 -0.94005 157 157 145
-0.376655 1.452671 -0.976115 155 155 144
-0.369664 1.470484 -0.985784 155 155 145
-0.362121 1.479507 -0.990202 157 157 145
-0.354172 1.47992 -0.989493 130 133 119
-0.347729 1.528542 -1.017446 32 35 28
-0.315008 1.541261 -1.021147 24 26 21
-0.306637 1.520127 -1.007707 23 25 20
-0.298491 1.499817 -0.994788 23 25 20
-0.256513 1.561393 -1.026557 13 15 10
-0.086377 1.866336 -1.190025 2 4 0
-0.064962 1.873488 -1.192378 4 6 1
-0.018229 1.909505 -1.209672 48 24 11
-0.100058 1.21193 -0.805827 7 9 4
-0.096846 1.190646 -0.793053 7 9 4
-0.091448 1.183211 -0.788256 6 8 3
-0.084914 1.182507 -0.787331 6 9 3
-0.078667 1.180253 -0.785519 5 7 2
-0.072731 1.176467 -0.782832 4 6 1
-0.067771 1.167908 -0.777415 3 5 0
-0.061629 1.165656 -0.775613 3 6 0
-0.050782 1.186187 -0.786839 6 6 0
-0.044314 1.185117 -0.785703 11 8 1
-0.038816 1.179695 -0.78208 23 14 3
-0.033501 1.173769 -0.77817 45 24 10
-0.026846 1.174013 -0.777777 57 27 11
-0.015474 1.194343 -0.788816 68 30 15
-0.005552 1.207814 -0.795925 79 40 23
-0.000595 1.200651 -0.79128 99 56 39
0.003975 1.192389 -0.786008 111 67 48
0.011904 1.197664 -0.788415 119 72 54
0.018833 1.199072 -0.788612 120 73 54
0.025049 1.197943 -0.787355 121 74 56
0.031294 1.197153 -0.786276 121 74 55
0.036078 1.191365 -0.782355 121 74 55
0.047352 1.20885 -0.791573 121 74 56
0.052899 1.206156 -0.789363 121 74 56
0.058784 1.204955 -0.787979 122 75 57
0.066011 1.20854 -0.789271 121 74 56
0.072898 1.211167 -0.79 121 74 56
0.079655 1.213576 -0.790583 121 73 56
0.08862 1.223234 -0.79521 122 73 56
0.099125 1.237731 -0.802516 121 72 55
0.11102 1.256415 -0.812126 120 71 54
-0.461273 1.437594 -0.987082 158 160 146
-0.454604 1.448993 -0.993002 157 159 146
-0.447385 1.456034 -0.996259 156 158 145
-0.439368 1.455362 -0.994819 155 157 144
-0.430428 1.444202 -0.987011 157 158 145
-0.422349 1.441696 -0.984482 156 156 144
-0.405476 1.425428 -0.972635 157 157 145
-0.397116 1.416284 -0.966129 157 157 145
-0.38768 1.388325 -0.948269 157 157 145
-0.360987 1.469272 -0.993298 156 156 144
-0.338184 1.507657 -1.013485 28 30 25
-0.321775 1.496389 -1.004838 28 30 25
-0.288735 1.617114 -1.073148 16 18 13
-0.262819 1.608101 -1.064915 12 14 9
-0.228508 1.599337 -1.056046 10 12 7
-0.209943 1.622415 -1.067917 6 8 3
-0.129411 1.82498 -1.180932 2 4 0
-0.049552 1.898355 -1.217576 2 4 0
-0.037085 1.912626 -1.225021 2 4 0
-0.026987 1.908948 -1.221994 5 6 0
-0.002566 1.929585 -1.232273 42 21 10
-0.084254 1.178916 -0.792566 4 6 1
-0.078371 1.174755 -0.789636 4 6 1
-0.072792 1.16922 -0.785914 3 5 0
-0.067723 1.1614 -0.780874 3 5 0
-0.061169 1.161316 -0.780314 3 5 0
-0.054939 1.159688 -0.77886 3 5 0
-0.049913 1.152545 -0.77422 2 4 0
-0.038966 1.172714 -0.78534 3 5 0
-0.033357 1.168265 -0.782246 6 5 0
-0.026929 1.167634 -0.781348 23 12 2
-0.019894 1.169679 -0.781983 47 23 11
-0.012896 1.171568 -0.782519 59 27 12
-0.006665 1.170389 -0.781281 63 28 11
0.00048 1.172994 -0.782205 71 32 15
0.013181 1.197112 -0.795456 108 61 43
0.018414 1.192125 -0.791987 116 69 50
0.026394 1.197711 -0.794563 120 73 54
0.031871 1.19417 -0.791895 120 73 54
0.035902 1.185809 -0.786458 120 73 55
0.043158 1.189289 -0.787775 121 74 56
0.045298 1.17527 -0.779085 121 74 56
0.051588 1.176028 -0.778814 122 75 57
0.062169 1.191298 -0.786783 121 74 56
0.070453 1.198826 -0.790309 121 74 56
0.078871 1.206833 -0.794076 121 73 55
0.085692 1.209827 -0.794967 122 73 56
0.093178 1.21511 -0.797128 121 72 55
0.101019 1.221644 -0.799968 118 70 53
-0.461328 1.442057 -0.998996 159 161 147
-0.454157 1.449155 -1.002325 156 158 144
-0.447102 1.458054 -1.00676 154 156 143
-0.43939 1.460922 -1.007481 155 157 143
-0.430815 1.454365 -1.002417 155 156 143
-0.421667 1.440004 -0.992582 157 157 145
-0.405261 1.430322 -0.984649 157 157 145
-0.397653 1.4329 -0.98524 156 156 144
-0.389246 1.422997 -0.978213 155 155 143
-0.375413 1.454242 -0.995333 151 151 140
-0.367954 1.463367 -0.999918 153 153 141
-0.361458 1.498282 -1.020182 140 143 129
-0.345395 1.503112 -1.021158 36 37 30
-0.336905 1.48834 -1.011236 33 35 29
-0.328921 1.491324 -1.012094 23 26 19
-0.320809 1.487303 -1.008718 25 27 21
-0.296658 1.51609 -1.023311 23 25 20
-0.034061 1.920682 -1.241635 2 4 0
-0.010701 1.933816 -1.247605 4 5 0
0.021795 1.933895 -1.245042 46 22 11
-0.077043 1.174737 -0.796937 3 5 0
-0.072802 1.162244 -0.789106 3 5 0
-0.066382 1.161404 -0.788102 3 5 0
-0.060462 1.15816 -0.785693 2 4 0
-0.055126 1.15232 -0.781768 2 4 0
-0.049051 1.150234 -0.780035 3 5 0
-0.042605 1.149972 -0.779363 3 5 0
-0.034736 1.156046 -0.782378 2 4 0
-0.027026 1.161217 -0.784856 3 5 0
-0.020513 1.161193 -0.784298 10 8 0
-0.014124 1.160761 -0.783494 29 16 4
-0.007438 1.161654 -0.78345 48 23 10
-0.00152 1.159626 -0.781698 58 26 11
0.004656 1.158821 -0.780644 62 28 11
0.011997 1.162609 -0.782237 70 32 15
0.027251 1.19566 -0.800748 109 63 44
0.028075 1.175349 -0.788351 112 66 47
0.035506 1.179508 -0.790094 118 71 52
0.040765 1.176163 -0.787483 120 73 55
0.043716 1.165263 -0.780501 120 73 55
0.050788 1.16888 -0.781871 120 73 55
0.059652 1.17858 -0.786716 120 73 55
0.068935 1.189607 -0.79229 120 73 55
0.078348 1.200988 -0.79803 120 73 55
0.084982 1.203534 -0.798667 120 73 55
0.089944 1.201101 -0.796426 120 73 55
0.092469 1.191564 -0.790103 120 73 55
-0.468277 1.437274 -1.006315 157 158 144
-0.460943 1.44263 -1.008594 153 155 140
-0.45398 1.451945 -1.013337 154 156 142
-0.446248 1.454453 -1.013841 154 156 142
-0.438966 1.461886 -1.017409 153 155 141
-0.431011 1.462549 -1.016773 154 155 142
-0.420511 1.432738 -0.997255 154 155 142
-0.411334 1.415574 -0.985618 155 155 143
-0.404095 1.422336 -0.988808 155 155 143
-0.38938 1.435183 -0.994767 152 152 140
-0.382289 1.447949 -1.001655 150 150 138
-0.375261 1.464497 -1.010862 150 150 138
-0.352841 1.505472 -1.033082 40 42 30
-0.335725 1.472763 -1.01109 35 36 28
-0.328513 1.513397 -1.035003 25 27 22
-0.320411 1.520298 -1.038257 23 25 20
-0.31174 1.466671 -1.004558 25 27 22
-0.295865 1.462494 -1.00019 24 26 21
-0.234811 1.60026 -1.077489 9 11 6
-0.078014 1.89305 -1.240736 1 3 0
-0.037632 1.959676 -1.277771 1 3 0
-0.005809 1.952994 -1.271081 2 4 0
0.027323 1.95446 -1.269314 17 12 2
0.040687 1.968185 -1.276588 43 21 9
0.060179 1.953362 -1.266068 57 23 8
0.075122 1.974077 -1.277471 64 26 10
-0.059589 1.155781 -0.791531 1 3 0
-0.054517 1.148742 -0.786861 2 4 0
-0.048587 1.146056 -0.784759 2 4 0
-0.041899 1.146958 -0.78477 3 5 0
-0.035814 1.145226 -0.783223 2 4 0
-0.031283 1.136996 -0.777847 3 5 0
-0.025188 1.135784 -0.776596 3 5 0
-0.015154 1.150827 -0.784885 4 5 0
-0.008003 1.153804 -0.786066 10 8 0
-0.001993 1.152325 -0.784619 27 16 4
0.00377 1.150114 -0.782731 48 25 11
0.009486 1.14799 -0.780881 56 27 11
0.016651 1.151464 -0.782291 60 26 11
0.025162 1.159863 -0.786558 75 34 18
0.035588 1.174943 -0.794698 101 57 40
0.042157 1.176298 -0.794796 117 71 53
0.045347 1.166307 -0.788261 118 72 54
0.05159 1.16717 -0.788035 120 73 55
0.058309 1.16984 -0.788836 120 73 55
0.064012 1.169398 -0.787804 120 73 55
0.076106 1.1897 -0.798782 119 72 54
0.08223 1.19087 -0.798625 119 72 54
0.086548 1.186702 -0.795355 120 73 55
0.101531 1.215594 -0.811172 117 70 52
-0.467476 1.434111 -1.013592 95 95 85
-0.460876 1.446152 -1.020106 147 148 134
-0.453643 1.453298 -1.023531 152 154 140
-0.445595 1.452922 -1.022228 152 154 140
-0.437911 1.456244 -1.023254 151 153 139
-0.430222 1.459789 -1.024424 151 152 140
-0.420074 1.434133 -1.007311 152 153 140
-0.410722 1.414993 -0.994318 152 153 141
-0.388799 1.436092 -1.004497 150 150 138
-0.37223 1.418376 -0.991506 148 148 136
-0.364533 1.419114 -0.991004 148 148 136
-0.351401 1.486287 -1.030756 72 74 61
-0.343322 1.486383 -1.029835 37 39 28
-0.302874 1.452085 -1.00394 23 25 20
-0.252329 1.557948 -1.06351 9 11 6
-0.242686 1.590759 -1.082682 8 10 5
-0.223137 1.638673 -1.110128 5 7 2
-0.208048 1.589882 -1.078543 5 7 2
-0.064977 1.898663 -1.255097 1 3 0
-0.005631 1.940414 -1.275771 1 3 0
0.006394 1.9476 -1.279209 3 5 0
0.01933 1.959804 -1.285659 2 4 0
0.057646 1.98855 -1.300261 38 16 7
0.068092 1.984201 -1.296778 54 22 9
