ply
format ascii 1.0
comment ---
element vertex 1181
property float x
property float y
property float z
property uchar red
property uchar green
property uchar blue
element face 0
property list uchar uint vertex_indices
end_header
-0.765772 1.071108 -0.171305 165 159 145
-0.761182 1.073999 -0.171978 165 159 145
-0.758483 1.07993 -0.172967 165 159 145
-0.753944 1.08314 -0.173706 165 159 144
-0.749868 1.087184 -0.174542 165 159 144
-0.745374 1.090666 -0.175336 165 159 144
-0.742254 1.096457 -0.176373 166 160 144
-0.738184 1.100826 -0.17728 166 160 144
-0.733644 1.10451 -0.178129 166 161 145
-0.730226 1.110135 -0.179183 167 161 145
-0.724892 1.112637 -0.179928 167 161 145
-0.720562 1.116879 -0.180856 168 162 146
-0.718078 1.124359 -0.182122 167 161 145
-0.714143 1.129441 -0.183149 168 162 146
-0.709389 1.133152 -0.184037 168 162 148
-0.703763 1.135345 -0.184769 169 163 149
-0.70032 1.14146 -0.185912 169 163 149
-0.695362 1.144897 -0.186776 169 163 149
-0.692255 1.151757 -0.188001 170 164 150
-0.686727 1.154201 -0.188759 170 164 148
-0.684363 1.16259 -0.190148 170 164 148
-0.680022 1.167335 -0.19115 171 165 149
-0.676013 1.172755 -0.192223 171 165 149
-0.672429 1.179053 -0.193389 171 165 149
-0.667481 1.18273 -0.194271 172 166 151
-0.66315 1.187647 -0.195284 172 166 152
-0.658501 1.191956 -0.196228 173 166 152
-0.653646 1.195865 -0.197125 173 167 151
-0.649574 1.201407 -0.198198 173 167 151
-0.644909 1.205758 -0.199136 173 167 151
-0.639189 1.207893 -0.199826 174 168 152
-0.637221 1.218053 -0.2014 174 168 153
-0.631758 1.220785 -0.202149 175 169 154
-0.628308 1.22793 -0.203384 175 169 154
-0.623519 1.23219 -0.204295 174 168 152
-0.618575 1.236122 -0.205164 174 168 152
-0.614858 1.242877 -0.206347 175 169 153
-0.610661 1.248614 -0.207413 175 169 153
-0.606423 1.254322 -0.208472 176 170 154
-0.601318 1.258037 -0.209302 175 169 153
-0.595665 1.26045 -0.209978 176 170 155
-0.591944 1.267562 -0.211187 176 170 156
-0.587555 1.273134 -0.212217 177 171 157
-0.582463 1.27702 -0.213049 177 171 157
-0.576613 1.279008 -0.213659 177 171 157
-0.57348 1.287971 -0.215071 177 171 157
-0.568376 1.291962 -0.215905 178 172 158
-0.563244 1.295918 -0.21673 177 171 157
-0.560047 1.305109 -0.218163 173 167 153
-0.554885 1.309137 -0.218991 144 137 122
-0.55093 1.316547 -0.220212 172 165 150
-0.54548 1.319915 -0.220957 27 22 15
-0.539634 1.322183 -0.221569 137 132 122
-0.535942 1.330672 -0.22291 162 155 145
-0.530746 1.334942 -0.223752 53 46 37
-0.525723 1.339789 -0.224659 82 76 65
-0.520536 1.344226 -0.225514 176 169 158
-0.515423 1.348967 -0.226403 177 170 159
-0.509538 1.351385 -0.227013 177 169 159
-0.503365 1.352906 -0.227512 175 168 157
-0.499876 1.363058 -0.22904 131 124 114
-0.502731 1.394258 -0.233093 40 33 25
-0.496569 1.396425 -0.233667 121 114 104
-0.486191 1.384329 -0.232521 186 179 167
-0.481061 1.389832 -0.233488 186 178 165
-0.476596 1.397803 -0.234751 186 178 165
-0.471311 1.403071 -0.235687 186 178 165
-0.465136 1.40524 -0.236246 185 177 164
-0.462683 1.4212 -0.238477 186 178 165
-0.459227 1.433921 -0.240317 186 178 165
-0.45438 1.44173 -0.241559 186 178 165
-0.447296 1.441027 -0.241763 188 180 167
-0.440953 1.4432 -0.242314 187 179 166
-0.435748 1.450042 -0.243435 189 181 168
-0.430155 1.455493 -0.244384 189 181 168
-0.424798 1.462119 -0.245478 190 182 169
-0.419694 1.470066 -0.246733 190 182 169
-0.414247 1.476789 -0.247838 191 183 170
-0.408445 1.482149 -0.248774 191 182 169
-0.402313 1.48617 -0.249543 193 183 171
-0.396677 1.492674 -0.250619 193 183 171
-0.390771 1.498122 -0.251564 194 184 172
-0.384953 1.504217 -0.252588 193 183 171
-0.379512 1.512472 -0.253881 193 183 171
-0.373543 1.518345 -0.254878 191 182 170
-0.367671 1.524986 -0.25597 192 184 171
-0.361916 1.532568 -0.25718 190 180 168
-0.356267 1.5411 -0.25851 165 155 143
-0.350023 1.546617 -0.259462 187 177 166
-0.344025 1.553862 -0.26063 180 170 160
-0.337858 1.560439 -0.261716 182 172 162
-0.331722 1.567556 -0.262869 184 174 164
-0.325314 1.5733 -0.26385 183 173 163
-0.318369 1.575745 -0.264414 186 177 167
-0.311215 1.576847 -0.264808 187 177 165
-0.304953 1.584376 -0.266013 186 176 165
-0.300532 1.606051 -0.269011 188 178 166
-0.296917 1.635467 -0.272995 189 181 168
-0.290855 1.647493 -0.274779 190 182 169
-0.283357 1.648485 -0.275162 191 183 170
-0.27668 1.656598 -0.27645 192 182 170
-0.270666 1.671316 -0.278581 191 181 169
-0.264404 1.684958 -0.280577 190 182 170
-0.256681 1.685383 -0.280887 190 182 171
-0.249101 1.687278 -0.281384 189 181 170
-0.241854 1.69291 -0.282358 189 181 169
-0.234804 1.701333 -0.28369 189 181 168
-0.227688 1.709851 -0.285035 189 181 168
-0.221432 1.730381 -0.287924 189 181 169
-0.213949 1.736691 -0.288989 188 180 167
-0.206528 1.744686 -0.29027 187 179 166
-0.199216 1.755495 -0.291915 188 179 166
-0.191951 1.76872 -0.293873 187 179 166
-0.184528 1.781237 -0.295742 186 178 165
-0.176915 1.792171 -0.297407 186 178 165
-0.169446 1.808501 -0.299774 185 177 165
-0.161633 1.81997 -0.301512 186 178 165
-0.154148 1.843542 -0.304823 186 178 165
-0.145827 1.847051 -0.30553 185 177 164
-0.137529 1.852502 -0.30649 185 177 166
-0.129156 1.856673 -0.307282 184 176 165
-0.121251 1.890788 -0.311977 184 176 165
-0.112681 1.89609 -0.312919 184 176 163
-0.104086 1.904177 -0.314224 183 175 162
-0.09546 1.92731 -0.317496 182 174 161
-0.086653 1.933291 -0.318526 182 174 162
-0.077781 1.941151 -0.319802 181 173 162
-0.068847 1.948194 -0.32097 182 174 162
-0.059684 1.965627 -0.323501 181 173 160
-0.050488 1.976813 -0.325213 181 173 160
-0.041246 1.985749 -0.326629 180 172 160
-0.031837 1.99751 -0.328417 180 172 159
-0.022639 1.99997 -0.328978 180 172 159
-0.013188 2.008325 -0.330314 179 171 160
-0.003545 2.019274 -0.331992 179 171 160
0.005648 2.018821 -0.332162 179 171 160
0.01578 2.036084 -0.334673 178 170 159
0.026028 2.052527 -0.337075 178 170 159
0.035777 2.058513 -0.338091 178 170 159
0.04539 2.061586 -0.338719 177 169 156
0.055163 2.066449 -0.339581 178 170 157
0.065181 2.073853 -0.340778 177 169 156
0.07519 2.080249 -0.341839 176 168 155
0.085195 2.08584 -0.342789 177 169 156
0.095615 2.095369 -0.344261 176 168 157
0.105797 2.101397 -0.345263 176 168 157
0.115711 2.104101 -0.34582 176 168 155
0.125745 2.107639 -0.346483 166 159 143
0.135831 2.111264 -0.347153 145 138 119
0.146001 2.115245 -0.347867 143 135 116
0.155981 2.117229 -0.34831 142 134 113
0.16583 2.117904 -0.348573 142 134 115
0.175501 2.117044 -0.348625 140 132 113
0.185035 2.115121 -0.348529 140 132 111
0.194484 2.112612 -0.348349 139 131 110
0.203726 2.108716 -0.347977 139 131 112
0.212886 2.104406 -0.347542 139 131 112
0.221859 2.099025 -0.346958 138 130 111
0.230711 2.093086 -0.346292 138 131 112
0.23945 2.086687 -0.345558 137 130 111
0.248256 2.080947 -0.344905 137 130 111
0.256941 2.074698 -0.344176 137 130 111
0.26543 2.067557 -0.343321 138 130 111
0.274099 2.06167 -0.342627 138 130 110
0.283006 2.057247 -0.342122 135 129 107
-0.790701 1.042614 -0.171753 163 157 142
-0.785772 1.044056 -0.172148 162 156 142
-0.782101 1.047451 -0.172762 164 158 144
-0.778772 1.051504 -0.173464 164 158 143
-0.775834 1.056298 -0.174264 164 158 142
-0.773847 1.062682 -0.175249 164 158 142
-0.770889 1.067799 -0.176125 164 158 143
-0.765686 1.069672 -0.176687 165 159 145
-0.759554 1.070216 -0.177129 165 159 145
-0.75583 1.074552 -0.177978 165 159 145
-0.754208 1.082303 -0.179199 165 159 145
-0.749727 1.085726 -0.179985 165 159 145
-0.74629 1.090909 -0.180968 165 159 144
-0.742558 1.095739 -0.181928 165 159 145
-0.738341 1.099886 -0.182826 165 159 145
-0.735101 1.105725 -0.183914 166 160 146
-0.73 1.108581 -0.184694 167 161 145
-0.726079 1.113466 -0.185697 166 160 144
-0.722869 1.11964 -0.186846 167 161 145
-0.718863 1.124547 -0.187864 167 161 145
-0.715082 1.129915 -0.188937 167 161 147
-0.71008 1.13321 -0.189789 168 162 148
-0.70522 1.136779 -0.190672 169 163 149
-0.699786 1.139343 -0.191446 169 163 148
-0.697069 1.146843 -0.192763 168 162 146
-0.69041 1.147202 -0.193293 169 163 147
-0.689864 1.158871 -0.195076 170 164 148
-0.684968 1.162554 -0.195973 171 165 149
-0.680813 1.16766 -0.197027 171 165 149
-0.676503 1.172511 -0.198052 171 165 149
-0.67236 1.177724 -0.199116 172 166 150
-0.668366 1.183273 -0.200216 172 166 151
-0.662287 1.184714 -0.200847 172 166 152
-0.658045 1.189815 -0.201891 173 167 152
-0.654118 1.195599 -0.20301 173 167 151
-0.649981 1.201008 -0.204083 173 167 151
-0.645088 1.204881 -0.204977 174 168 152
-0.64139 1.211294 -0.206161 174 168 152
-0.63695 1.216194 -0.207166 174 168 152
-0.633117 1.222447 -0.208326 175 169 153
-0.628219 1.22643 -0.209218 175 169 153
-0.623628 1.231116 -0.210188 175 169 153
-0.619789 1.237532 -0.211358 176 170 154
-0.614769 1.241332 -0.212217 176 170 154
-0.609629 1.244869 -0.213041 175 169 153
-0.605213 1.250113 -0.214062 175 169 153
-0.59985 1.253167 -0.21482 176 170 154
-0.596566 1.261219 -0.216168 176 170 154
-0.591802 1.265801 -0.217101 177 171 156
-0.587289 1.271045 -0.218109 177 171 155
-0.582986 1.276881 -0.219185 177 171 156
-0.578653 1.282725 -0.220259 177 171 157
-0.573052 1.28539 -0.220947 177 171 157
-0.56871 1.291339 -0.222028 177 171 157
-0.563406 1.294837 -0.222809 178 172 157
-0.560726 1.305398 -0.224444 175 169 154
-0.555553 1.309411 -0.225282 144 137 121
-0.549905 1.312155 -0.225962 170 163 149
-0.545682 1.3189 -0.227127 29 24 16
-0.540441 1.322882 -0.227952 144 140 130
-0.535308 1.327229 -0.228818 160 156 145
-0.531451 1.335373 -0.230149 44 41 32
-0.526247 1.339698 -0.231008 30 27 18
-0.521198 1.344561 -0.231931 135 131 122
-0.516279 1.349906 -0.23291 127 123 114
-0.509812 1.350539 -0.233303 93 89 81
-0.504366 1.354363 -0.234089 82 77 69
-0.503413 1.372697 -0.236679 54 47 40
-0.501837 1.389544 -0.239088 35 27 20
-0.492589 1.381386 -0.238375 171 164 153
-0.48699 1.385229 -0.239156 186 180 167
-0.481373 1.389084 -0.239937 185 178 164
-0.47721 1.398102 -0.241364 185 177 164
-0.471305 1.401183 -0.242044 185 177 164
-0.466058 1.4067 -0.243028 185 177 164
-0.461141 1.413582 -0.244184 186 178 165
-0.457421 1.425174 -0.245935 186 178 165
-0.453675 1.437046 -0.247724 187 179 166
-0.447289 1.439007 -0.248255 187 179 166
-0.44196 1.445204 -0.249322 187 179 166
-0.436348 1.450443 -0.250267 188 180 167
-0.430563 1.455124 -0.25114 189 181 168
-0.425216 1.461797 -0.252265 190 182 169
-0.419727 1.468089 -0.253342 190 182 169
-0.414376 1.475213 -0.254525 191 183 170
-0.408484 1.480152 -0.255428 191 182 170
-0.402635 1.485463 -0.256377 193 183 171
-0.396649 1.490314 -0.257267 192 182 170
-0.391096 1.497439 -0.258448 193 183 171
-0.385171 1.503009 -0.25943 193 183 171
-0.379784 1.511533 -0.260792 193 183 171
-0.373743 1.517031 -0.261764 192 183 170
-0.367709 1.522801 -0.262771 192 184 171
-0.362141 1.531372 -0.264141 191 182 170
-0.356247 1.538524 -0.265327 179 169 157
-0.350458 1.546629 -0.266638 188 178 167
-0.344682 1.555219 -0.268012 188 178 168
-0.338328 1.560726 -0.268986 189 179 169
-0.33186 1.565802 -0.269902 190 180 170
-0.325851 1.574113 -0.271242 190 180 170
-0.318827 1.5761 -0.271755 190 182 171
-0.311599 1.576755 -0.272092 191 183 171
-0.306152 1.590149 -0.274099 191 183 170
-0.300701 1.604408 -0.276222 191 183 170
-0.296421 1.628649 -0.279662 191 183 170
-0.289483 1.633476 -0.28055 191 183 170
-0.283038 1.642711 -0.282019 192 182 171
-0.276033 1.647804 -0.282943 191 182 172
-0.269196 1.654782 -0.284116 192 182 172
-0.263083 1.669125 -0.286264 192 182 172
-0.255935 1.674558 -0.287234 190 182 171
-0.24948 1.687602 -0.289214 189 181 169
-0.242322 1.694287 -0.290351 189 181 169
-0.235185 1.701876 -0.29161 189 181 170
-0.227969 1.709282 -0.292844 188 180 169
-0.221685 1.729465 -0.295782 188 180 169
-0.214377 1.738202 -0.297197 187 179 167
-0.207011 1.747196 -0.298647 188 180 167
-0.200123 1.764927 -0.301266 188 180 167
-0.192743 1.777047 -0.303138 188 180 167
-0.184921 1.783064 -0.304194 187 179 166
-0.177141 1.79095 -0.3055 186 178 165
-0.169674 1.80732 -0.307946 186 178 165
-0.161794 1.817152 -0.309516 186 178 165
-0.15423 1.838262 -0.312604 186 178 165
-0.146304 1.853968 -0.314969 186 178 165
-0.137959 1.859172 -0.315919 186 178 167
-0.129576 1.864668 -0.316909 185 177 166
-0.121428 1.88687 -0.320155 184 176 165
-0.11288 1.893091 -0.321244 183 175 163
-0.104329 1.906029 -0.323241 183 175 162
-0.095667 1.921688 -0.325608 183 175 163
-0.086878 1.928242 -0.326743 183 175 164
-0.078013 1.937494 -0.328242 183 175 164
-0.069045 1.948474 -0.329977 182 174 161
-0.059825 1.96907 -0.33302 182 174 161
-0.050767 1.972359 -0.333709 181 173 160
-0.041482 1.983569 -0.335475 180 172 159
-0.032101 1.994497 -0.337203 180 172 159
-0.022678 2.00371 -0.338697 180 172 160
-0.013457 2.005548 -0.339182 180 172 161
-0.004083 2.010484 -0.340089 179 171 160
0.005969 2.028445 -0.342776 179 171 160
0.015867 2.04034 -0.344633 179 171 160
0.02559 2.047256 -0.345807 179 171 160
0.035454 2.05534 -0.347139 178 170 159
0.045138 2.05959 -0.347943 176 170 156
0.054953 2.065073 -0.348914 176 169 156
0.065064 2.073698 -0.350314 176 168 155
0.075073 2.08002 -0.351395 175 169 155
0.085174 2.086652 -0.352516 176 168 157
0.09559 2.096031 -0.354013 176 168 157
0.105571 2.099841 -0.35474 176 168 155
0.115547 2.103177 -0.355398 176 168 155
0.125712 2.107939 -0.356248 166 159 143
0.135877 2.112222 -0.357029 145 137 119
0.146016 2.115829 -0.357712 144 136 116
0.155964 2.117466 -0.358119 143 135 114
0.165875 2.118582 -0.358448 142 134 115
0.175451 2.116912 -0.358387 139 131 112
0.185014 2.115171 -0.35831 139 131 111
0.194337 2.111704 -0.357989 139 131 111
0.203393 2.106488 -0.357418 140 132 113
0.212551 2.102198 -0.35697 140 132 113
0.221649 2.097677 -0.356484 139 131 112
0.230559 2.092115 -0.355846 137 130 111
0.239165 2.084888 -0.354971 137 130 111
0.248034 2.079545 -0.35435 137 130 111
0.25716 2.075888 -0.353958 138 130 111
0.26518 2.066018 -0.352694 137 130 111
0.274263 2.06244 -0.352299 137 129 110
0.283152 2.057875 -0.351759 135 129 107
-0.79558 1.048106 -0.177735 162 156 141
-0.78769 1.04538 -0.177696 163 157 142
-0.783207 1.047645 -0.178208 162 156 142
-0.779497 1.051177 -0.178876 163 157 142
-0.776662 1.056152 -0.17972 164 157 143
-0.773465 1.060763 -0.180545 163 157 143
-0.769774 1.064792 -0.181328 164 158 144
-0.766155 1.069075 -0.182156 164 158 144
-0.759418 1.068722 -0.182498 165 159 145
-0.754167 1.070709 -0.183109 165 159 145
-0.752644 1.078602 -0.184379 164 158 144
-0.750349 1.085466 -0.185553 165 159 145
-0.746883 1.090625 -0.186555 165 159 145
-0.742971 1.095186 -0.187502 166 160 146
-0.739166 1.10002 -0.18849 166 160 146
-0.734052 1.1028 -0.189259 166 160 146
-0.730503 1.108228 -0.190331 166 160 144
-0.726553 1.113078 -0.191346 167 161 145
-0.722892 1.118498 -0.192431 167 161 145
-0.719406 1.124303 -0.193566 167 161 145
-0.715014 1.128621 -0.194537 168 162 147
-0.710576 1.132907 -0.195507 168 162 148
-0.705395 1.135917 -0.196333 169 163 149
-0.70171 1.141624 -0.19747 169 163 148
-0.696844 1.145255 -0.198368 169 163 147
-0.691867 1.148701 -0.199245 169 163 147
-0.690508 1.158879 -0.200903 170 164 148
-0.685764 1.162857 -0.201842 170 164 148
-0.681056 1.166923 -0.202789 171 165 151
-0.677245 1.172733 -0.203939 171 165 150
-0.672121 1.176043 -0.204793 172 166 150
-0.667924 1.181179 -0.20586 172 166 151
-0.663048 1.185 -0.206769 172 166 152
-0.658344 1.189178 -0.207716 173 167 153
-0.654514 1.195157 -0.208876 173 167 153
-0.650476 1.200769 -0.20999 174 168 152
-0.646075 1.205673 -0.211016 174 168 152
-0.641862 1.211009 -0.212091 175 169 153
-0.637607 1.216304 -0.213158 175 169 153
-0.633073 1.221042 -0.214154 175 169 153
-0.628339 1.225374 -0.215097 175 169 153
-0.624115 1.230864 -0.216178 175 169 153
-0.619931 1.236501 -0.217273 176 170 154
-0.615587 1.241836 -0.218329 176 169 153
-0.6118 1.248511 -0.219547 176 170 154
-0.604168 1.24628 -0.219662 176 170 154
-0.599931 1.251958 -0.220749 176 170 154
-0.596364 1.259316 -0.222041 176 170 154
-0.591993 1.264833 -0.223103 176 170 154
-0.58685 1.268515 -0.223932 177 171 155
-0.58332 1.276253 -0.225265 176 170 156
-0.578666 1.281276 -0.226256 178 172 157
-0.574751 1.288262 -0.227491 178 172 157
-0.568795 1.290051 -0.228069 179 171 158
-0.563514 1.293598 -0.228864 179 171 157
-0.560212 1.302475 -0.23033 178 170 156
-0.555243 1.307006 -0.231244 144 137 121
-0.550216 1.311437 -0.232143 170 164 149
-0.544418 1.31377 -0.232772 27 24 16
-0.540197 1.32058 -0.233967 27 24 16
-0.534166 1.322312 -0.234512 32 28 20
-0.532516 1.336841 -0.236692 28 24 17
-0.52696 1.34015 -0.237435 26 21 14
-0.52218 1.345839 -0.23848 27 23 16
-0.516513 1.348923 -0.239188 28 23 15
-0.511405 1.353784 -0.240122 28 24 15
-0.506838 1.360445 -0.241287 39 32 24
-0.503725 1.371936 -0.243075 67 59 49
-0.497332 1.373034 -0.243517 83 74 63
-0.491853 1.377141 -0.244347 175 168 155
-0.485574 1.37863 -0.244833 184 178 164
-0.484373 1.397551 -0.247588 185 178 165
-0.478064 1.399228 -0.248097 186 178 165
-0.47195 1.401596 -0.248693 185 177 164
-0.466455 1.406238 -0.249584 185 177 164
-0.462859 1.417999 -0.251407 186 178 165
-0.458662 1.427881 -0.252985 187 179 166
-0.454448 1.438023 -0.254598 187 179 166
-0.44786 1.439235 -0.255034 187 179 166
-0.442205 1.44415 -0.255957 188 180 167
-0.436625 1.449517 -0.256939 189 181 168
-0.431121 1.45536 -0.257982 190 182 169
-0.425729 1.461869 -0.259113 190 182 169
-0.420007 1.467177 -0.260085 190 182 169
-0.414491 1.473565 -0.261199 190 182 169
-0.408879 1.479754 -0.262286 192 183 170
-0.40289 1.48443 -0.263172 192 183 170
-0.39744 1.491814 -0.264418 192 184 171
-0.391389 1.496589 -0.265316 191 183 170
-0.385617 1.502922 -0.266421 192 182 170
-0.379892 1.509752 -0.267593 194 184 172
-0.373848 1.515219 -0.268583 193 184 171
-0.367874 1.521285 -0.269652 192 184 171
-0.362132 1.528893 -0.270929 192 183 170
-0.356482 1.537373 -0.272324 191 181 169
-0.350468 1.544178 -0.273494 192 182 170
-0.344925 1.554107 -0.275086 193 183 172
-0.338686 1.560323 -0.276177 193 183 173
-0.332362 1.566319 -0.277239 192 183 173
-0.326262 1.574093 -0.278542 193 183 173
-0.319614 1.578645 -0.279408 192 183 173
-0.312933 1.583214 -0.280277 192 184 173
-0.307337 1.595795 -0.282235 192 184 172
-0.30102 1.60387 -0.283581 191 183 170
-0.294651 1.612084 -0.284948 190 182 169
-0.289107 1.627432 -0.287289 191 181 169
-0.283093 1.640037 -0.289258 191 181 169
-0.276214 1.646163 -0.290344 191 181 171
-0.269414 1.65346 -0.29159 192 182 172
-0.262886 1.6639 -0.293268 191 182 172
-0.255977 1.671498 -0.294557 191 181 171
-0.249941 1.688767 -0.297176 190 181 171
-0.242712 1.694815 -0.298255 189 181 170
-0.235413 1.700651 -0.299305 188 180 169
-0.228485 1.711553 -0.301053 189 181 170
-0.221731 1.725909 -0.30328 189 181 170
-0.214388 1.734027 -0.304648 188 180 169
-0.207468 1.749317 -0.307008 188 180 168
-0.199973 1.757796 -0.308428 188 180 167
-0.192981 1.775997 -0.311196 188 180 167
-0.185275 1.784181 -0.312578 187 179 166
-0.177826 1.798947 -0.314875 187 179 166
-0.169888 1.805848 -0.316081 186 178 165
-0.16207 1.817201 -0.317907 186 178 165
-0.154291 1.832493 -0.320283 186 178 165
-0.146463 1.850634 -0.323058 186 178 165
-0.138179 1.857832 -0.324309 185 177 165
-0.129796 1.86341 -0.325334 184 176 165
-0.121526 1.878414 -0.327676 184 176 165
-0.113061 1.888715 -0.329362 184 176 164
-0.104621 1.914292 -0.333189 184 176 163
-0.095879 1.918283 -0.333994 184 176 165
-0.087098 1.92484 -0.335157 183 175 164
-0.078229 1.936088 -0.336979 182 174 162
-0.069138 1.958194 -0.340329 182 174 161
-0.060113 1.963055 -0.341254 181 173 161
-0.050935 1.973275 -0.342933 180 172 160
-0.041646 1.984178 -0.344708 180 172 159
-0.032218 1.996349 -0.346662 180 172 160
-0.022814 2.004519 -0.348052 180 172 161
-0.013488 2.008771 -0.348887 179 171 160
-0.004066 2.014282 -0.349898 179 171 158
0.005385 2.019331 -0.350841 179 171 160
0.01575 2.040695 -0.354095 178 170 159
0.025442 2.046915 -0.355203 179 171 160
0.035141 2.052276 -0.356187 178 170 159
0.044902 2.057776 -0.357188 176 170 156
0.054772 2.064037 -0.358296 175 169 156
0.064774 2.071206 -0.35953 175 169 156
0.075003 2.080295 -0.361035 176 168 157
0.085394 2.090225 -0.362659 176 168 157
0.095477 2.095664 -0.36364 176 168 157
0.105518 2.10005 -0.364468 175 167 155
0.115554 2.103906 -0.365217 176 168 155
0.125623 2.107658 -0.365947 164 157 141
0.13581 2.112089 -0.366771 146 138 119
0.145901 2.115225 -0.367406 144 136 115
0.156239 2.120114 -0.368288 143 135 114
0.165719 2.117588 -0.368104 143 135 116
0.175187 2.115064 -0.367915 142 134 115
0.184811 2.113796 -0.367901 139 131 112
0.194176 2.110634 -0.36761 139 131 112
0.203117 2.104602 -0.366901 139 131 112
0.212195 2.099792 -0.366361 139 131 112
0.221377 2.095863 -0.365942 139 130 112
0.23047 2.091491 -0.365453 138 131 112
0.239263 2.08541 -0.364713 138 131 113
0.248141 2.080076 -0.364073 138 131 112
0.257522 2.077863 -0.363875 138 129 112
0.266603 2.07395 -0.363427 138 129 112
0.274194 2.061869 -0.361796 137 129 110
0.283294 2.058435 -0.361403 137 130 110
-0.792842 1.04275 -0.18258 162 156 140
-0.78965 1.046759 -0.183278 162 156 140
-0.784374 1.047924 -0.183679 162 156 140
-0.781109 1.052142 -0.184442 163 157 142
-0.778228 1.057089 -0.185308 163 157 143
-0.774078 1.060323 -0.186 164 158 144
-0.76924 1.06266 -0.186609 164 158 144
-0.765636 1.066974 -0.187459 164 158 144
-0.761684 1.070898 -0.188281 164 158 143
-0.756868 1.07361 -0.18898 164 158 143
-0.753554 1.07876 -0.189973 165 159 144
-0.750549 1.08453 -0.19105 165 159 144
-0.747477 1.090331 -0.192145 165 159 145
-0.7438 1.095291 -0.193155 165 159 145
-0.739433 1.099236 -0.194056 166 160 146
-0.736753 1.106029 -0.195299 166 160 146
-0.730934 1.10774 -0.195955 166 160 146
-0.726522 1.111828 -0.196896 167 161 147
-0.723481 1.118303 -0.198123 167 161 146
-0.718819 1.122101 -0.19904 167 161 145
-0.714584 1.126683 -0.200052 168 162 148
-0.710293 1.131218 -0.201063 168 162 148
-0.706827 1.137267 -0.202256 169 163 148
-0.702814 1.142412 -0.203344 169 163 147
-0.698507 1.147078 -0.204375 169 163 147
-0.694733 1.152762 -0.205529 170 164 150
-0.690586 1.157815 -0.206607 170 164 150
-0.686761 1.163517 -0.207764 170 164 150
-0.681147 1.165877 -0.208511 171 165 151
-0.676908 1.170859 -0.209577 171 165 151
-0.672785 1.176102 -0.210674 171 165 151
-0.667918 1.179925 -0.211592 172 166 151
-0.664205 1.186055 -0.212794 172 166 152
-0.659912 1.19108 -0.213857 173 167 153
-0.65591 1.196734 -0.214996 174 168 154
-0.650875 1.20031 -0.215872 175 168 152
-0.64619 1.20462 -0.216837 174 168 152
-0.642129 1.21027 -0.217967 175 169 153
-0.637657 1.215096 -0.21899 175 169 153
-0.633226 1.220045 -0.220025 175 169 153
-0.62837 1.224101 -0.220944 175 169 153
-0.62363 1.228435 -0.221894 176 170 154
-0.620169 1.235669 -0.22321 176 170 154
-0.61597 1.241326 -0.224323 176 170 154
-0.610743 1.244675 -0.225137 176 170 154
-0.606186 1.249594 -0.226149 176 170 154
-0.601337 1.25387 -0.227075 176 170 154
-0.598011 1.261832 -0.228473 176 170 154
-0.592749 1.265221 -0.229277 176 170 154
-0.588161 1.270282 -0.230295 176 170 155
-0.583542 1.275327 -0.231307 177 171 155
-0.578216 1.278641 -0.232091 178 172 156
-0.575284 1.288115 -0.233676 178 172 157
-0.569593 1.2906 -0.234345 178 170 156
-0.564554 1.294803 -0.235236 179 172 156
-0.55985 1.299945 -0.236246 176 169 154
-0.555063 1.30494 -0.237235 148 141 125
-0.549672 1.308348 -0.238012 168 160 146
-0.545613 1.315503 -0.239281 39 32 22
-0.541485 1.322608 -0.240542 66 59 48
-0.536621 1.327738 -0.241539 96 89 76
-0.532852 1.336156 -0.242971 127 120 105
-0.527659 1.340542 -0.243866 124 117 101
-0.522521 1.345167 -0.24479 146 137 124
-0.517203 1.349321 -0.245649 152 142 131
-0.511478 1.35228 -0.246345 164 155 144
-0.50647 1.357532 -0.247347 168 160 148
-0.502897 1.367499 -0.24898 172 164 152
-0.498472 1.374958 -0.250275 175 167 154
-0.489145 1.366355 -0.249405 180 173 160
-0.489638 1.39051 -0.25295 183 176 163
-0.48662 1.403399 -0.254979 185 177 164
-0.479988 1.404065 -0.255353 186 178 165
-0.474213 1.407744 -0.256133 185 177 164
-0.471623 1.423017 -0.258486 186 178 165
-0.467062 1.431536 -0.259923 186 178 165
-0.462238 1.439329 -0.261262 186 178 165
-0.456147 1.442518 -0.261972 187 179 166
-0.448782 1.44081 -0.262011 188 180 167
-0.442534 1.443422 -0.262637 188 180 167
-0.437003 1.448989 -0.263667 189 181 168
-0.431665 1.455527 -0.264828 189 181 168
-0.426042 1.461079 -0.265855 189 181 168
-0.420529 1.46729 -0.266971 190 182 169
-0.414696 1.472308 -0.267922 191 182 169
-0.4095 1.480358 -0.269291 192 182 170
-0.403424 1.484674 -0.270145 192 182 170
-0.39766 1.490603 -0.271221 192 182 170
-0.392094 1.497712 -0.27246 192 183 170
-0.386066 1.502831 -0.273423 192 183 171
-0.380221 1.509077 -0.274542 193 183 171
-0.374162 1.51448 -0.275545 193 183 171
-0.368662 1.523073 -0.276991 192 184 171
-0.362944 1.530886 -0.278329 191 183 170
-0.35676 1.536456 -0.279355 192 184 171
-0.350791 1.543522 -0.280589 192 184 171
-0.345325 1.553914 -0.28229 192 184 171
-0.339145 1.560517 -0.283461 192 184 171
-0.33282 1.566556 -0.284554 193 184 173
-0.326799 1.574883 -0.285968 194 184 174
-0.32041 1.581224 -0.287104 192 184 173
-0.313948 1.587438 -0.288222 192 184 173
-0.307668 1.595313 -0.289575 192 184 172
-0.301891 1.607404 -0.291522 192 184 171
-0.295577 1.616213 -0.293009 190 182 169
-0.289318 1.626063 -0.294644 191 182 169
-0.283269 1.638365 -0.296627 191 182 169
-0.27667 1.64689 -0.298078 190 182 169
-0.269871 1.654284 -0.299369 190 180 168
-0.263021 1.661791 -0.300678 190 181 170
-0.256135 1.669587 -0.302028 190 182 171
-0.249373 1.679338 -0.303657 189 181 170
-0.242961 1.693803 -0.305958 190 182 171
-0.23572 1.700328 -0.307131 188 180 169
-0.228794 1.711299 -0.308938 188 180 169
-0.221944 1.724496 -0.311065 188 180 169
-0.214745 1.734563 -0.312746 188 180 169
-0.207412 1.743982 -0.314337 189 180 169
-0.199883 1.751648 -0.315677 188 179 167
-0.193256 1.775591 -0.319351 188 180 167
-0.185569 1.784202 -0.320831 188 179 167
-0.177992 1.796525 -0.322845 187 178 166
-0.170298 1.808723 -0.324842 186 178 167
-0.162448 1.819769 -0.326675 186 178 167
-0.154421 1.828656 -0.328199 186 178 167
-0.146415 1.840744 -0.330185 186 178 167
-0.13833 1.853959 -0.332335 185 177 166
-0.130236 1.872265 -0.335222 186 178 166
-0.121817 1.881364 -0.336781 184 176 164
-0.113252 1.885397 -0.337608 184 176 162
-0.104776 1.905092 -0.340701 184 176 163
-0.096087 1.914605 -0.342323 183 175 164
-0.087299 1.932081 -0.345099 183 175 164
-0.078378 1.945214 -0.347247 183 175 162
-0.06938 1.954328 -0.348813 182 174 161
-0.060267 1.965461 -0.350672 181 173 162
-0.051082 1.975095 -0.352313 181 173 161
-0.041879 1.981908 -0.353543 181 173 161
-0.032554 1.990713 -0.355063 180 172 161
-0.02303 2.002959 -0.357084 179 171 160
-0.013559 2.010895 -0.358476 179 171 160
-0.004102 2.01682 -0.359573 179 171 158
0.005267 2.019775 -0.360234 178 170 158
0.015243 2.033625 -0.362489 178 170 159
0.025387 2.048136 -0.36484 177 169 158
0.035072 2.053063 -0.365786 177 169 158
0.04475 2.057161 -0.366607 177 169 156
0.054639 2.063621 -0.367774 176 169 157
0.064591 2.070073 -0.368937 176 170 158
0.074549 2.075789 -0.36999 177 169 158
0.085179 2.08867 -0.372095 176 168 157
0.095276 2.094257 -0.373124 176 168 156
0.105327 2.098746 -0.373989 175 167 156
0.115545 2.104417 -0.375025 176 168 155
0.125615 2.108087 -0.375763 165 157 142
0.135385 2.108621 -0.376034 146 138 120
0.145687 2.1137 -0.376973 144 136 116
0.156326 2.12113 -0.378255 143 135 114
0.165648 2.117225 -0.377858 142 134 115
0.175153 2.114951 -0.377697 141 133 114
0.184747 2.113412 -0.377639 140 132 113
0.194098 2.110122 -0.377317 140 132 113
0.203201 2.105203 -0.376748 140 132 113
0.212066 2.098884 -0.375965 139 131 112
0.22131 2.09535 -0.37559 140 132 113
0.230614 2.092303 -0.375281 138 131 112
0.239521 2.086869 -0.374611 137 130 111
0.248232 2.080454 -0.37379 137 130 112
0.257366 2.076761 -0.373367 137 130 112
0.266496 2.073124 -0.372946 138 129 112
0.275173 2.067052 -0.372156 137 130 111
0.283106 2.057159 -0.370792 136 129 110
0.291492 2.050025 -0.369831 134 127 108
-0.791735 1.039725 -0.187655 161 155 141
-0.788798 1.044105 -0.188417 162 156 141
-0.786366 1.049394 -0.189307 162 156 141
-0.782158 1.052279 -0.189934 162 156 142
-0.779021 1.056883 -0.190784 163 157 143
-0.775663 1.061324 -0.191633 164 158 144
-0.772628 1.066404 -0.192576 163 157 143
-0.767246 1.068094 -0.193133 164 158 144
-0.763502 1.072376 -0.194015 164 158 144
-0.759772 1.076807 -0.194929 165 159 145
-0.756578 1.082202 -0.195972 164 158 144
-0.751821 1.085273 -0.196749 164 158 144
-0.748189 1.090215 -0.197763 165 159 145
-0.744265 1.094798 -0.198745 166 160 146
-0.741311 1.101055 -0.19994 166 160 146
-0.737011 1.105227 -0.200889 166 160 146
-0.732148 1.108537 -0.20174 166 160 146
-0.728838 1.1145 -0.202923 167 161 147
-0.723538 1.117189 -0.203707 167 161 145
-0.719011 1.121223 -0.204661 167 161 146
-0.714009 1.12448 -0.205521 168 162 147
-0.710604 1.130557 -0.206735 168 162 148
-0.706781 1.135976 -0.207869 168 162 148
-0.703527 1.142479 -0.209142 169 163 148
-0.699248 1.147207 -0.210193 169 163 149
-0.694492 1.151101 -0.211139 170 164 150
-0.690525 1.156477 -0.212271 169 163 149
-0.686164 1.161165 -0.213316 171 165 151
-0.682895 1.167958 -0.214628 170 164 150
-0.677364 1.170489 -0.215394 171 165 151
-0.671715 1.172771 -0.216125 172 166 152
-0.668481 1.179772 -0.21746 172 166 152
-0.664038 1.184451 -0.218494 172 166 152
-0.660317 1.190613 -0.219717 172 166 152
-0.656124 1.19588 -0.220822 175 168 152
-0.651228 1.199738 -0.221742 173 167 151
-0.646359 1.203663 -0.222666 174 168 152
-0.642082 1.208848 -0.223752 175 169 153
-0.637438 1.213293 -0.224738 175 169 153
-0.633111 1.218449 -0.225814 176 169 153
-0.628423 1.22286 -0.226788 175 169 153
-0.623701 1.227221 -0.227753 176 170 154
-0.620397 1.234796 -0.22914 176 170 154
-0.61594 1.239859 -0.230192 176 170 155
-0.611468 1.244934 -0.231242 176 170 154
-0.60675 1.249485 -0.23222 177 170 154
-0.602422 1.254998 -0.233322 176 170 154
-0.599104 1.262996 -0.234756 177 171 155
-0.594424 1.26782 -0.235761 177 171 155
-0.589028 1.270933 -0.236533 176 170 156
-0.583577 1.273915 -0.237282 177 171 157
-0.579358 1.280016 -0.238451 178 172 158
-0.574483 1.284533 -0.239402 179 172 158
-0.570106 1.29039 -0.240532 178 171 156
-0.565025 1.294486 -0.24142 179 171 158
-0.560128 1.299115 -0.242378 176 169 154
-0.555205 1.303736 -0.243332 149 141 128
-0.550701 1.309572 -0.244449 174 166 153
-0.546499 1.316352 -0.245695 169 161 148
-0.541654 1.321446 -0.246707 169 161 148
-0.537911 1.329788 -0.248164 172 164 151
-0.532653 1.333897 -0.249036 173 165 152
-0.528141 1.340275 -0.25022 171 163 150
-0.523071 1.345108 -0.251188 172 164 151
-0.517484 1.348449 -0.251948 174 166 153
-0.511681 1.351166 -0.252618 176 168 155
-0.50586 1.35385 -0.253281 175 167 154
-0.50037 1.35762 -0.254092 178 170 157
-0.503656 1.390034 -0.258896 180 172 159
-0.499983 1.400431 -0.260635 181 173 160
-0.495848 1.40957 -0.262198 184 176 163
-0.491271 1.417448 -0.263585 185 177 164
-0.482068 1.409418 -0.26274 185 177 164
-0.477433 1.417252 -0.264117 184 176 163
-0.472644 1.424755 -0.265447 186 178 165
-0.467167 1.429946 -0.266451 186 178 165
-0.462904 1.439824 -0.268115 187 179 166
-0.45572 1.438872 -0.26825 187 179 166
-0.449142 1.440184 -0.268702 187 179 165
-0.443136 1.443761 -0.269473 188 181 165
-0.437333 1.448254 -0.270371 188 180 167
-0.431685 1.453512 -0.271378 188 180 167
-0.426256 1.459861 -0.272539 189 181 168
-0.420524 1.465123 -0.273545 190 182 169
-0.415228 1.472477 -0.274848 191 183 170
-0.409607 1.478638 -0.275982 192 183 170
-0.404143 1.485751 -0.277251 193 183 171
-0.398346 1.491573 -0.278336 193 183 171
-0.392494 1.497353 -0.279414 193 183 171
-0.386663 1.503463 -0.28054 193 184 171
-0.380651 1.508904 -0.28157 191 183 170
-0.375265 1.517808 -0.283097 191 183 170
-0.369575 1.525506 -0.284452 192 184 171
-0.363523 1.531592 -0.285575 192 184 171
-0.357327 1.537142 -0.286621 192 183 171
-0.351337 1.544137 -0.287875 193 183 171
-0.345561 1.552744 -0.289363 193 183 171
-0.339247 1.558529 -0.290444 193 183 171
-0.333003 1.565049 -0.291631 192 183 172
-0.326733 1.571757 -0.292846 192 182 172
-0.320764 1.580841 -0.294407 192 183 173
-0.314381 1.587622 -0.295634 191 183 172
-0.308122 1.595699 -0.29705 192 184 173
-0.302055 1.6057 -0.298747 191 183 171
-0.296218 1.618135 -0.300801 192 182 171
-0.29001 1.628505 -0.302556 191 182 170
-0.283189 1.634586 -0.303686 192 182 170
-0.276957 1.646148 -0.305618 192 182 170
-0.270327 1.655083 -0.307167 191 181 169
-0.263451 1.662441 -0.308486 191 181 169
-0.25678 1.672426 -0.310192 190 181 169
-0.249929 1.681469 -0.31176 190 182 171
-0.244009 1.701406 -0.314933 189 181 170
-0.236462 1.704939 -0.315694 189 181 170
-0.229497 1.715781 -0.317532 188 180 169
-0.222348 1.725515 -0.319209 189 181 170
-0.21527 1.737368 -0.3212 188 180 169
-0.207687 1.743452 -0.32234 188 180 168
-0.200391 1.754812 -0.32426 189 179 167
-0.193041 1.766954 -0.326299 187 179 166
-0.18565 1.780346 -0.328524 188 179 167
-0.178291 1.796774 -0.331202 187 178 166
-0.170686 1.811084 -0.333569 186 178 167
-0.162889 1.823875 -0.335712 186 178 167
-0.154774 1.831073 -0.337025 185 177 166
-0.14692 1.848563 -0.339871 186 178 167
-0.138579 1.853829 -0.340898 185 177 166
-0.130582 1.876751 -0.344558 185 177 166
-0.12196 1.875815 -0.34466 185 177 166
-0.113595 1.89418 -0.347645 185 177 166
-0.105031 1.908747 -0.350065 184 176 164
-0.096305 1.914641 -0.351188 184 176 165
-0.087523 1.923828 -0.352804 183 175 162
-0.078601 1.942169 -0.355793 182 174 161
-0.069657 1.946828 -0.356731 182 174 162
-0.06042 1.967848 -0.360125 181 173 162
-0.05125 1.975786 -0.361556 180 172 160
-0.042071 1.981188 -0.362605 180 172 161
-0.032665 1.992607 -0.364559 180 172 161
-0.023364 1.997863 -0.365584 180 172 160
-0.01387 2.00683 -0.367168 179 171 158
-0.004315 2.015241 -0.368667 179 171 159
0.005218 2.021585 -0.369853 178 170 158
0.015365 2.038384 -0.372619 178 170 157
0.025318 2.049064 -0.374459 177 169 156
0.034918 2.052427 -0.375192 178 170 157
0.044645 2.05718 -0.376132 177 169 156
0.054523 2.063393 -0.377292 176 169 156
0.064409 2.068891 -0.378341 175 169 157
0.074332 2.074152 -0.379353 176 169 157
0.084731 2.084347 -0.381111 175 168 157
0.095066 2.092717 -0.38259 175 167 155
0.105138 2.097422 -0.38351 175 167 155
0.115348 2.102998 -0.38456 176 168 156
0.125474 2.1072 -0.385397 163 156 142
0.135373 2.108884 -0.385848 144 137 120
0.145325 2.110817 -0.386333 145 137 117
0.155979 2.118433 -0.387681 143 135 115
0.165902 2.119455 -0.388019 142 134 114
0.175315 2.116327 -0.387719 140 132 113
0.184872 2.114411 -0.387599 140 132 113
0.194298 2.111581 -0.387335 139 131 112
0.203452 2.106929 -0.386786 140 132 113
0.212511 2.101826 -0.386163 140 131 113
0.221492 2.096426 -0.385489 139 131 112
0.230688 2.092622 -0.385053 139 131 112
0.239836 2.088634 -0.384584 137 130 111
0.248144 2.07971 -0.383352 137 130 112
0.256866 2.07359 -0.382543 138 131 113
0.266032 2.070214 -0.38215 137 129 112
0.27471 2.064196 -0.381344 136 129 110
0.283258 2.057667 -0.380454 136 129 110
0.291829 2.051468 -0.379609 135 128 109
-0.794051 1.041561 -0.193306 161 155 140
-0.789049 1.043034 -0.193735 162 156 141
-0.783755 1.044212 -0.194146 162 156 142
-0.782953 1.052044 -0.195395 162 156 142
-0.779322 1.055948 -0.19618 162 156 142
-0.777003 1.061951 -0.197242 163 157 143
-0.773474 1.066325 -0.198121 164 158 144
-0.769073 1.06953 -0.198871 164 158 144
-0.764012 1.071842 -0.199523 164 158 144
-0.760296 1.07632 -0.20046 164 158 144
-0.757099 1.081728 -0.201527 164 158 144
-0.753052 1.085938 -0.202456 165 159 145
-0.748562 1.089545 -0.203319 165 159 145
-0.744645 1.094155 -0.204319 165 159 145
-0.741621 1.10031 -0.205525 165 159 145
-0.736668 1.103424 -0.206351 166 160 146
-0.732513 1.107908 -0.207359 167 161 147
-0.728321 1.112403 -0.208373 167 161 145
-0.724489 1.117573 -0.20948 167 161 145
-0.719184 1.120295 -0.210274 167 161 147
-0.714409 1.12395 -0.211191 167 161 146
-0.710628 1.129376 -0.21234 168 162 147
-0.706509 1.134269 -0.213422 168 162 148
-0.702467 1.13935 -0.21453 169 163 148
-0.699607 1.146622 -0.215926 169 163 149
-0.694816 1.150456 -0.216871 170 164 150
-0.690921 1.155967 -0.218037 170 164 150
-0.685823 1.159277 -0.218911 170 164 150
-0.683406 1.167667 -0.220457 170 164 150
-0.678239 1.170903 -0.221318 171 165 151
-0.672866 1.173735 -0.222122 171 165 151
-0.668343 1.178222 -0.223145 172 166 152
-0.663954 1.182998 -0.224203 173 167 153
-0.658844 1.186355 -0.225068 173 167 153
-0.655036 1.192356 -0.226286 175 168 152
-0.651752 1.199498 -0.227657 175 168 152
-0.647229 1.204145 -0.228688 176 168 153
-0.643367 1.210217 -0.22991 176 168 153
-0.638185 1.213537 -0.230754 176 168 153
-0.632763 1.216333 -0.231522 176 169 153
-0.628967 1.222675 -0.232772 176 170 154
-0.62441 1.227405 -0.233799 176 169 153
-0.619969 1.232432 -0.234863 176 169 153
-0.616109 1.238827 -0.236113 176 170 154
-0.6123 1.245418 -0.237388 176 170 154
-0.607659 1.250162 -0.238405 176 170 154
-0.603064 1.255057 -0.23944 176 170 155
-0.599134 1.261592 -0.240701 176 170 156
-0.594834 1.267325 -0.241847 177 171 157
-0.589034 1.269446 -0.242486 177 171 157
-0.583552 1.27234 -0.243229 177 171 157
-0.580496 1.281361 -0.244828 178 171 157
-0.575248 1.284945 -0.245662 178 171 158
-0.570031 1.288635 -0.246507 178 171 157
-0.565142 1.293219 -0.247476 178 172 158
-0.561061 1.300017 -0.248755 178 170 157
-0.55732 1.307857 -0.25018 164 156 143
-0.551566 1.310327 -0.250842 173 165 152
-0.546474 1.314642 -0.251762 175 167 154
-0.542779 1.322969 -0.253252 175 167 154
-0.539086 1.331483 -0.254767 176 168 155
-0.534222 1.336775 -0.255822 178 170 157
-0.528204 1.338752 -0.256401 180 172 159
-0.523302 1.344076 -0.257456 180 172 158
-0.517613 1.347103 -0.25818 181 174 158
-0.512579 1.352193 -0.259197 182 174 161
-0.506942 1.355485 -0.259954 183 175 162
-0.505398 1.371918 -0.262603 184 176 163
-0.50323 1.386806 -0.265032 184 176 163
-0.497349 1.389856 -0.265753 184 176 163
-0.489993 1.387987 -0.265759 185 177 164
-0.484248 1.391509 -0.266542 184 176 163
-0.479304 1.397882 -0.267737 184 176 163
-0.4745 1.404922 -0.269029 184 176 163
-0.468698 1.408563 -0.269825 186 178 165
-0.465277 1.421024 -0.271905 186 178 165
-0.459477 1.424992 -0.272748 187 179 166
-0.454127 1.430773 -0.273854 188 180 166
-0.44915 1.438175 -0.275197 188 181 165
-0.443785 1.444272 -0.276348 187 180 164
-0.437706 1.447677 -0.277104 188 181 167
-0.431574 1.45095 -0.277839 189 181 168
-0.426411 1.458386 -0.279185 190 182 169
-0.420934 1.464733 -0.280371 190 182 169
-0.415765 1.472653 -0.281789 191 183 170
-0.410306 1.47957 -0.283059 191 183 170
-0.404483 1.485076 -0.284121 192 183 171
-0.398771 1.491305 -0.285289 193 183 171
-0.393007 1.497523 -0.286456 193 183 171
-0.387536 1.505431 -0.287874 193 184 172
-0.381228 1.509459 -0.288716 192 184 171
-0.375325 1.515732 -0.289891 192 184 171
-0.370192 1.526354 -0.291713 192 184 171
-0.363933 1.531359 -0.292701 192 184 171
-0.357808 1.537337 -0.293833 194 184 172
-0.3517 1.543691 -0.295021 194 184 172
-0.345545 1.550076 -0.296215 194 184 172
-0.339361 1.55661 -0.297431 193 183 171
-0.33317 1.563446 -0.298693 193 183 171
-0.326892 1.570084 -0.299926 193 183 172
-0.321094 1.580293 -0.301695 193 184 172
-0.314761 1.58744 -0.303006 192 184 171
-0.308408 1.594877 -0.304361 192 184 172
-0.302073 1.602912 -0.305807 192 184 172
-0.296122 1.614411 -0.307775 192 183 171
-0.289817 1.623926 -0.309447 192 183 170
-0.283379 1.633022 -0.311057 192 182 170
-0.277156 1.644655 -0.313051 192 182 170
-0.270903 1.656941 -0.315147 192 182 170
-0.264117 1.665286 -0.316647 192 182 170
-0.257463 1.675625 -0.318452 191 182 170
-0.250253 1.681216 -0.319537 189 181 170
-0.244052 1.698156 -0.322347 190 182 171
-0.237023 1.707475 -0.324001 188 180 169
-0.229554 1.712494 -0.325003 188 180 169
-0.222429 1.722415 -0.326751 189 180 169
-0.215722 1.739168 -0.329541 189 180 169
-0.208044 1.744118 -0.330535 188 179 168
-0.201567 1.768291 -0.334464 188 180 167
-0.193605 1.771395 -0.335178 187 179 166
-0.186338 1.787524 -0.337884 187 179 166
-0.178988 1.804907 -0.340785 186 178 167
-0.171435 1.821336 -0.343543 187 179 168
-0.163225 1.825402 -0.344407 185 177 166
-0.155003 1.830035 -0.345359 186 178 167
-0.146923 1.840418 -0.347193 186 178 167
-0.138838 1.854059 -0.34953 186 178 167
-0.130538 1.86365 -0.351245 185 177 166
-0.122348 1.884409 -0.354681 184 176 164
-0.113725 1.886256 -0.355206 184 176 165
-0.105253 1.908474 -0.358872 184 176 165
-0.096528 1.916376 -0.360332 183 175 164
-0.087733 1.9229 -0.361578 182 174 163
-0.078824 1.938692 -0.364258 182 174 162
-0.06989 1.943277 -0.365205 181 173 161
-0.06054 1.972286 -0.369935 181 173 162
-0.051437 1.975488 -0.370668 181 173 160
-0.042285 1.979495 -0.371525 180 172 160
-0.032989 1.987195 -0.372954 179 171 159
-0.023553 1.99691 -0.374696 180 172 159
-0.014142 2.003653 -0.375975 178 170 158
-0.004447 2.015475 -0.378044 179 171 160
0.005411 2.028355 -0.380278 179 171 160
0.015063 2.035054 -0.381549 178 170 158
0.024938 2.044523 -0.38325 178 170 157
0.034621 2.04943 -0.384239 177 169 156
0.044327 2.053978 -0.38517 177 169 156
0.054458 2.063813 -0.386925 176 168 157
0.064353 2.069301 -0.387999 176 168 157
0.074481 2.076988 -0.389416 176 168 157
0.084822 2.086265 -0.391079 175 167 156
0.094774 2.090206 -0.391905 175 167 155
0.105235 2.099054 -0.393498 175 167 154
0.115334 2.103365 -0.394377 175 167 154
0.125634 2.109143 -0.395483 166 158 144
0.13543 2.10974 -0.395772 144 137 121
0.145538 2.112942 -0.396468 143 136 117
0.155949 2.118362 -0.397508 143 135 115
0.165727 2.118151 -0.39766 142 134 113
0.175264 2.115981 -0.397498 141 133 113
0.184762 2.113585 -0.397296 140 132 113
0.194213 2.110914 -0.397046 140 132 113
0.203372 2.106271 -0.39648 140 132 113
0.212346 2.100571 -0.395741 140 131 113
0.221431 2.095853 -0.395152 140 131 114
0.230654 2.0922 -0.394726 139 131 113
0.239742 2.087815 -0.394179 138 130 112
0.248786 2.083311 -0.393607 137 130 112
0.257196 2.075228 -0.392463 137 130 112
0.265813 2.068652 -0.391552 136 129 111
0.274519 2.062804 -0.39075 136 129 110
0.283243 2.057228 -0.389985 136 129 110
0.29194 2.051671 -0.389217 135 129 108
-0.792057 1.037287 -0.198209 160 154 138
-0.788714 1.041126 -0.198947 161 155 139
-0.784742 1.044225 -0.199609 162 156 140
-0.784239 1.052515 -0.200957 162 156 141
-0.781027 1.057069 -0.201843 162 156 142
-0.773953 1.056067 -0.202029 163 157 143
-0.772966 1.064214 -0.203413 163 157 143
-0.768356 1.067112 -0.204134 164 158 144
-0.764006 1.070516 -0.204934 164 158 144
-0.759409 1.073647 -0.205711 164 158 144
-0.755497 1.077943 -0.206653 164 158 144
-0.751761 1.082625 -0.207656 164 158 144
-0.748367 1.087961 -0.208757 165 158 144
-0.745722 1.094617 -0.210042 165 159 142
-0.740574 1.097353 -0.210817 166 159 143
-0.735723 1.100623 -0.21167 166 160 144
-0.73208 1.105943 -0.212801 166 160 145
-0.728528 1.111504 -0.21397 167 161 145
-0.724477 1.11631 -0.215043 167 161 145
-0.719985 1.120425 -0.216027 167 161 146
-0.716898 1.127015 -0.217348 167 161 147
-0.710802 1.12844 -0.217973 169 163 148
-0.706228 1.13253 -0.218959 168 162 147
-0.701817 1.136943 -0.219989 168 162 147
-0.696448 1.139658 -0.220788 169 163 149
-0.69669 1.152627 -0.22299 169 163 149
-0.690338 1.153625 -0.223553 170 164 150
-0.687316 1.160804 -0.224963 170 164 149
-0.683684 1.166916 -0.226227 171 165 149
-0.678302 1.169741 -0.227036 171 165 149
-0.673234 1.173159 -0.227923 172 166 151
-0.669767 1.179715 -0.229244 171 165 151
-0.664629 1.183029 -0.230112 172 166 152
-0.659406 1.186168 -0.230951 173 167 152
-0.655816 1.192615 -0.232251 173 167 153
-0.652567 1.199834 -0.233658 174 168 152
-0.647169 1.202671 -0.234446 174 168 152
-0.643334 1.208786 -0.235693 176 169 154
-0.638709 1.213282 -0.236709 176 169 153
-0.633919 1.217449 -0.237675 176 169 153
-0.63007 1.223691 -0.238933 177 170 154
-0.625168 1.227675 -0.239867 177 170 154
-0.619628 1.230249 -0.240596 178 170 154
-0.615899 1.236915 -0.241906 176 170 154
-0.612306 1.243985 -0.243272 176 170 154
-0.6087 1.251124 -0.244647 177 170 155
-0.603348 1.254252 -0.245443 178 170 157
-0.59804 1.257485 -0.24625 178 170 157
-0.593923 1.263612 -0.247471 176 170 156
-0.589446 1.268941 -0.248575 177 171 157
-0.582548 1.268313 -0.248812 179 170 158
-0.580318 1.279364 -0.250741 179 171 158
-0.575218 1.283309 -0.251636 179 171 158
-0.570025 1.287046 -0.252498 179 171 158
-0.5668 1.295987 -0.254117 178 172 158
-0.561891 1.300621 -0.255106 178 171 157
-0.55687 1.305016 -0.256057 178 170 157
-0.552037 1.309981 -0.257089 179 171 158
-0.547386 1.315528 -0.258204 180 172 159
-0.543089 1.322172 -0.25948 180 172 159
-0.53879 1.328938 -0.260772 180 172 159
-0.534317 1.335341 -0.262009 182 174 161
-0.529154 1.339832 -0.262962 182 174 161
-0.523059 1.341605 -0.26351 181 173 160
-0.518561 1.348234 -0.264776 183 175 162
-0.513099 1.352029 -0.26562 183 175 162
-0.508375 1.358202 -0.266815 183 175 162
-0.503258 1.363261 -0.267843 183 175 162
-0.499475 1.37276 -0.269533 184 176 163
-0.494669 1.379139 -0.270757 185 177 164
-0.489131 1.383217 -0.271635 185 177 164
-0.484621 1.390892 -0.273051 184 176 163
-0.479449 1.396474 -0.274153 186 178 165
-0.476179 1.408927 -0.276286 186 178 165
-0.470979 1.414823 -0.277435 186 178 163
-0.465305 1.419142 -0.278345 186 179 163
-0.459226 1.422054 -0.279042 186 179 163
-0.45379 1.427468 -0.280114 186 179 164
-0.44908 1.435854 -0.281636 187 180 164
-0.443931 1.442778 -0.282937 187 180 164
-0.437931 1.446497 -0.283751 188 181 167
-0.432336 1.451976 -0.284832 189 181 168
-0.426987 1.458668 -0.286096 190 182 169
-0.421746 1.466054 -0.287466 191 182 169
-0.416455 1.473483 -0.288843 192 183 170
-0.410727 1.479234 -0.289965 191 183 170
-0.404931 1.48488 -0.29107 192 184 171
-0.399036 1.49027 -0.292136 192 183 171
-0.393582 1.497978 -0.293556 193 185 172
-0.387712 1.503962 -0.294713 193 185 172
-0.381668 1.50931 -0.295772 192 184 171
-0.375505 1.514268 -0.296772 193 184 172
-0.370471 1.525392 -0.298718 193 184 171
-0.364542 1.532199 -0.300002 194 184 172
-0.358181 1.536915 -0.300965 194 184 172
-0.352003 1.542889 -0.302122 194 184 172
-0.345697 1.548397 -0.303207 194 184 174
-0.340014 1.557957 -0.304918 194 184 173
-0.333548 1.563148 -0.305955 193 183 172
-0.327541 1.571559 -0.30749 194 184 172
-0.321356 1.579278 -0.308919 194 184 172
-0.315301 1.588342 -0.310558 192 184 171
-0.308747 1.594422 -0.311735 192 184 171
-0.302602 1.603888 -0.313438 192 183 171
-0.296356 1.613215 -0.315121 192 183 171
-0.28997 1.62208 -0.316733 192 183 170
-0.28344 1.630405 -0.318263 192 182 170
-0.27712 1.641141 -0.32017 191 182 170
-0.271114 1.655524 -0.322648 191 182 170
-0.264069 1.661461 -0.323809 191 181 169
-0.25772 1.674647 -0.326104 191 181 170
-0.25045 1.679657 -0.327122 189 181 170
-0.243701 1.690696 -0.329085 190 182 171
-0.236996 1.703335 -0.3313 190 182 171
-0.230168 1.715872 -0.333502 189 181 170
-0.222941 1.724783 -0.335137 189 179 169
-0.215708 1.734684 -0.336928 189 180 168
-0.208502 1.746222 -0.338978 188 180 167
-0.200881 1.752958 -0.340274 187 179 166
-0.194239 1.776963 -0.344292 187 179 166
-0.186166 1.779089 -0.344865 186 178 166
-0.178819 1.795891 -0.347753 186 178 167
-0.171794 1.82302 -0.352276 186 178 167
-0.163412 1.823291 -0.352558 186 178 167
-0.155103 1.825501 -0.353145 186 178 167
-0.147148 1.839378 -0.35558 186 178 167
-0.139183 1.857513 -0.358691 185 177 166
-0.130778 1.863448 -0.35987 185 177 166
-0.122616 1.886087 -0.363702 184 176 165
-0.113961 1.886747 -0.364045 184 176 163
-0.105489 1.909941 -0.36797 183 175 162
-0.096749 1.917934 -0.36948 183 175 164
-0.087934 1.928522 -0.371403 182 174 163
-0.079024 1.93885 -0.373286 182 174 163
-0.070066 1.944882 -0.374484 181 173 160
-0.061118 1.946654 -0.375001 181 173 160
-0.051652 1.973631 -0.379545 181 173 161
-0.042466 1.979057 -0.380646 180 172 160
-0.033193 1.985778 -0.381954 180 172 159
-0.023671 1.997994 -0.384141 179 171 158
-0.014201 2.005905 -0.385639 178 170 157
-0.004426 2.019157 -0.387993 179 171 160
0.005186 2.026421 -0.389387 178 170 159
0.01497 2.035631 -0.391092 178 170 159
0.024659 2.041676 -0.392287 178 170 158
0.034315 2.046237 -0.393243 177 169 158
0.044135 2.052598 -0.394487 176 168 157
0.054481 2.065425 -0.39677 176 168 156
0.064314 2.069899 -0.397708 176 168 157
0.074663 2.080183 -0.39958 176 168 157
0.08466 2.085173 -0.400596 174 166 155
0.095231 2.095933 -0.402543 174 166 155
0.105458 2.101952 -0.403722 174 166 153
