ply
format ascii 1.0
comment ---
element vertex 1187
property float x
property float y
property float z
property uchar red
property uchar green
property uchar blue
element face 0
property list uchar uint vertex_indices
end_header
-0.226533 1.724561 -0.424452 207 194 185
-0.220036 1.745103 -0.428975 207 194 185
-0.212055 1.747553 -0.429696 207 194 185
-0.204576 1.757807 -0.43206 207 194 185
-0.197288 1.772614 -0.435385 206 193 184
-0.18937 1.778785 -0.436892 206 193 184
-0.181767 1.791992 -0.439884 206 193 184
-0.174215 1.80879 -0.443637 207 194 185
-0.166331 1.821468 -0.446522 206 193 184
-0.158126 1.828755 -0.448271 204 191 182
-0.150026 1.841133 -0.451098 203 190 181
-0.142107 1.863819 -0.456106 202 189 180
-0.133669 1.873536 -0.458375 202 189 180
-0.125245 1.88864 -0.461785 203 190 181
-0.1166 1.897957 -0.463973 202 189 180
-0.107823 1.90229 -0.465105 202 189 180
-0.099038 1.912883 -0.467565 202 189 180
-0.090156 1.930463 -0.471509 201 188 179
-0.081181 1.933364 -0.47234 200 187 178
-0.07203 1.952152 -0.476545 199 186 177
-0.062961 1.952895 -0.476919 198 185 176
-0.044821 1.953902 -0.477561 153 141 132
-0.034896 1.984287 -0.484242 134 124 117
-0.02499 2.005466 -0.488968 152 141 135
-0.015654 2.006378 -0.489378 144 135 128
-0.006181 2.010315 -0.490433 182 173 164
0.003723 2.022561 -0.49326 169 159 150
0.013444 2.029082 -0.494866 134 124 114
0.023306 2.036973 -0.496765 183 173 163
0.033056 2.041826 -0.498016 190 180 170
0.043166 2.051378 -0.500271 188 178 170
0.05323 2.058984 -0.50211 187 177 168
0.063284 2.065468 -0.503709 187 177 168
0.073376 2.071626 -0.505239 187 177 168
0.083535 2.077828 -0.506778 186 176 167
0.093738 2.083833 -0.508274 184 174 165
0.104018 2.089981 -0.509801 184 174 165
0.114517 2.097689 -0.511662 183 173 164
0.125185 2.10625 -0.513706 183 173 164
0.135571 2.11141 -0.51502 182 172 162
0.145625 2.11316 -0.515601 180 170 160
0.155662 2.114543 -0.516102 179 169 159
0.165516 2.114266 -0.516244 169 159 149
0.175282 2.11324 -0.516224 157 145 135
0.184876 2.110908 -0.51592 155 143 130
0.194391 2.108077 -0.515507 156 144 130
0.203597 2.103175 -0.514645 156 144 130
0.212521 2.096591 -0.513418 153 143 128
0.221655 2.091695 -0.512552 151 141 127
0.230768 2.086872 -0.511699 151 141 127
0.240067 2.083377 -0.511129 151 141 127
0.249213 2.079066 -0.51038 150 140 127
0.258191 2.073903 -0.509444 150 140 127
0.26575 2.060872 -0.506807 150 140 128
0.27332 2.04848 -0.504302 150 141 128
0.281505 2.039931 -0.502624 150 140 127
0.291939 2.043465 -0.503556 150 140 127
0.3022 2.045818 -0.50423 149 139 126
0.311473 2.04301 -0.503785 149 139 127
0.31399 2.007378 -0.496232 149 139 127
0.323576 2.006835 -0.496269 149 139 127
0.333715 2.008747 -0.496837 148 138 126
0.344112 2.011609 -0.497607 148 138 126
0.353346 2.009053 -0.497202 148 138 126
0.361146 2.000249 -0.495438 148 138 125
0.369646 1.994652 -0.494367 148 139 124
0.377062 1.984642 -0.492334 148 138 124
0.38554 1.979224 -0.491295 148 138 123
0.393375 1.971313 -0.489711 147 138 123
0.401569 1.964975 -0.488465 147 138 124
0.409734 1.958627 -0.487213 147 138 123
0.417832 1.95212 -0.485924 147 137 125
0.426175 1.946617 -0.48485 146 136 124
0.434187 1.939975 -0.483525 146 136 124
0.442497 1.934482 -0.482447 146 137 122
0.450835 1.929141 -0.481398 146 137 122
0.459213 1.92398 -0.480387 145 135 123
0.465064 1.910358 -0.47753 145 136 123
0.472164 1.901189 -0.475639 144 135 120
0.480388 1.895845 -0.474578 144 134 121
0.488946 1.891606 -0.473755 144 134 122
0.496265 1.883484 -0.472084 143 134 121
0.504118 1.877147 -0.4708 144 135 121
0.511436 1.869264 -0.469175 143 134 120
0.51912 1.862604 -0.467816 144 133 121
0.527121 1.856969 -0.466678 143 133 119
0.534038 1.848265 -0.464869 143 133 119
0.540174 1.837505 -0.462609 142 133 119
0.548035 1.831816 -0.461455 142 133 119
0.554994 1.823723 -0.459775 142 133 119
0.563126 1.818986 -0.458827 142 133 119
0.571735 1.815599 -0.458174 142 133 119
0.577259 1.804124 -0.455754 142 133 119
0.586596 1.80285 -0.455563 142 133 118
0.592999 1.794073 -0.453733 142 132 118
0.602293 1.792833 -0.453553 142 132 118
0.608456 1.783837 -0.451678 142 132 119
0.618173 1.783842 -0.451774 142 132 119
0.625854 1.778953 -0.450803 141 132 118
0.632127 1.770886 -0.449139 141 132 119
0.639473 1.765641 -0.448097 141 131 119
0.649373 1.766582 -0.448412 141 131 119
0.65712 1.762659 -0.447669 141 131 119
0.66444 1.758001 -0.446769 140 130 118
0.670633 1.751084 -0.445379 140 131 116
0.680993 1.753745 -0.446096 140 131 116
0.681615 1.735191 -0.442166 139 130 116
-0.801549 1.033081 -0.263611 161 154 142
-0.796263 1.034436 -0.264073 161 153 142
-0.794293 1.040604 -0.265481 161 154 142
-0.790591 1.044496 -0.266456 161 155 143
-0.785407 1.046398 -0.26705 162 156 144
-0.78035 1.048591 -0.267708 162 156 144
-0.776666 1.052903 -0.268788 162 156 144
-0.774415 1.059477 -0.270319 162 156 144
-0.771263 1.064869 -0.271625 163 157 145
-0.767148 1.068942 -0.27268 165 158 146
-0.76251 1.072317 -0.273602 165 158 146
-0.758562 1.07684 -0.274755 166 158 147
-0.754906 1.081914 -0.276021 168 160 149
-0.750589 1.086044 -0.277105 168 160 149
-0.748227 1.093365 -0.278824 169 161 150
-0.743758 1.097423 -0.279901 169 161 150
-0.740035 1.102752 -0.281232 170 162 151
-0.734287 1.104821 -0.281918 171 163 152
-0.73011 1.109508 -0.283126 171 163 152
-0.726098 1.114524 -0.2844 172 164 153
-0.722962 1.121089 -0.285984 172 164 153
-0.718204 1.124945 -0.287029 173 165 154
-0.71449 1.130641 -0.288442 174 166 155
-0.710003 1.135035 -0.289596 175 167 156
-0.706515 1.141237 -0.291111 177 169 158
-0.702272 1.146142 -0.292366 176 168 157
-0.698054 1.151129 -0.293638 177 169 158
-0.691929 1.152636 -0.29421 177 169 158
-0.686878 1.156097 -0.295172 177 169 158
-0.684076 1.1638 -0.296989 178 170 159
-0.679209 1.167656 -0.29803 179 171 160
-0.674625 1.172064 -0.29918 179 171 160
-0.670743 1.177863 -0.300611 180 172 161
-0.666436 1.182874 -0.301882 180 172 161
-0.661759 1.187178 -0.303008 181 173 162
-0.657166 1.191669 -0.304172 181 173 162
-0.653644 1.198379 -0.305784 182 174 163
-0.649528 1.203931 -0.307161 183 175 164
-0.645088 1.208856 -0.308409 184 176 165
-0.640466 1.213429 -0.309585 183 175 164
-0.63497 1.216151 -0.310381 184 176 165
-0.629304 1.218485 -0.311096 184 176 165
-0.625682 1.225305 -0.312726 185 177 166
-0.621892 1.231841 -0.314298 186 177 167
-0.616585 1.235029 -0.315184 186 177 167
-0.611791 1.239395 -0.316309 186 178 167
-0.607334 1.244577 -0.3176 187 179 168
-0.602687 1.249367 -0.318811 187 179 168
-0.598725 1.25584 -0.320366 187 179 168
-0.59408 1.260761 -0.321601 187 179 168
-0.589499 1.265893 -0.322879 188 180 169
-0.584107 1.269077 -0.323755 188 180 169
-0.579371 1.273926 -0.324973 189 181 169
-0.574429 1.278309 -0.326094 188 180 169
-0.571177 1.287112 -0.328127 189 180 169
-0.564827 1.28797 -0.328518 189 181 170
-0.562804 1.300292 -0.33128 189 181 170
-0.558169 1.30585 -0.332642 189 181 170
-0.553254 1.31074 -0.333865 190 182 171
-0.547974 1.314691 -0.334893 190 182 171
-0.54449 1.323754 -0.336982 190 182 171
-0.539513 1.328755 -0.338227 190 182 171
-0.533979 1.33223 -0.339155 191 183 172
-0.52866 1.336379 -0.340222 190 182 171
-0.524824 1.345039 -0.342228 191 183 172
-0.520083 1.351156 -0.343704 192 182 172
-0.514721 1.35549 -0.344809 194 184 174
-0.509424 1.360111 -0.345973 194 184 174
-0.505398 1.368878 -0.348004 194 184 174
-0.50043 1.374828 -0.349446 194 184 174
-0.494855 1.378915 -0.350498 195 185 175
-0.489399 1.383489 -0.351652 195 185 175
-0.485138 1.392245 -0.353682 196 186 176
-0.479898 1.397851 -0.355053 196 186 176
-0.474745 1.403917 -0.35652 197 187 177
-0.469393 1.409432 -0.357872 197 187 177
-0.463881 1.414509 -0.359132 198 188 178
-0.458235 1.419224 -0.360317 199 189 179
-0.453407 1.427186 -0.362184 199 189 179
-0.448681 1.435805 -0.36419 199 189 179
-0.443134 1.44146 -0.365573 199 189 179
-0.437745 1.447936 -0.36713 201 191 181
-0.431992 1.453124 -0.368416 203 190 181
-0.426005 1.457494 -0.369529 202 191 181
-0.420806 1.465393 -0.371388 203 192 182
-0.415774 1.474324 -0.373465 205 193 184
-0.410356 1.481865 -0.375251 204 193 184
-0.404152 1.48609 -0.376335 206 194 185
-0.398094 1.491151 -0.377597 207 194 185
-0.392202 1.497204 -0.379069 208 195 186
-0.386179 1.502855 -0.380457 209 196 187
-0.38081 1.512045 -0.382596 209 196 187
-0.374771 1.518182 -0.384089 209 196 187
-0.368895 1.525457 -0.385824 210 197 188
-0.362754 1.531624 -0.387324 210 197 188
-0.356525 1.537591 -0.388783 211 198 189
-0.350623 1.545735 -0.390706 210 198 188
-0.344418 1.552494 -0.392335 211 198 189
-0.338305 1.560177 -0.394163 211 198 189
-0.332339 1.569201 -0.396277 211 198 189
-0.325965 1.576099 -0.397939 211 198 189
-0.319319 1.581566 -0.399297 211 198 189
-0.313043 1.589915 -0.401271 210 197 189
-0.307105 1.601219 -0.403878 210 197 189
-0.300884 1.611183 -0.4062 210 197 188
-0.294583 1.62122 -0.40854 209 197 187
-0.288141 1.630844 -0.410794 209 196 188
-0.281654 1.640812 -0.413122 209 196 188
-0.274602 1.646645 -0.414567 209 196 187
-0.268832 1.66456 -0.418603 208 195 187
-0.261583 1.670016 -0.41997 209 196 187
-0.254678 1.679348 -0.422169 209 196 187
-0.248338 1.695449 -0.425824 209 196 187
-0.241146 1.703828 -0.427823 208 195 186
-0.23461 1.720673 -0.431643 208 195 186
-0.227181 1.728452 -0.433517 208 195 186
-0.220017 1.74059 -0.436329 208 195 186
-0.212415 1.748152 -0.438159 209 196 187
-0.204589 1.753364 -0.439484 209 196 187
-0.197191 1.766186 -0.44245 210 197 188
-0.189482 1.775613 -0.444687 210 197 188
-0.181519 1.781823 -0.44623 210 197 188
-0.173749 1.79319 -0.448888 206 194 185
-0.166061 1.80888 -0.452482 206 193 184
-0.158629 1.835034 -0.45834 205 192 183
-0.15035 1.843192 -0.460312 203 190 181
-0.142346 1.863481 -0.46491 202 189 181
-0.133889 1.872682 -0.467112 202 189 180
-0.125465 1.887983 -0.470636 202 189 180
-0.116766 1.893996 -0.47215 202 189 180
-0.108097 1.908586 -0.475525 202 189 180
-0.099262 1.916826 -0.477524 201 188 179
-0.090353 1.926075 -0.479744 201 188 179
-0.081358 1.935459 -0.481994 200 187 178
-0.072277 1.944889 -0.484256 199 186 177
-0.063186 1.948927 -0.485346 197 184 175
-0.054959 1.905419 -0.476094 180 167 158
-0.045293 1.94027 -0.483885 149 138 129
-0.035464 1.969272 -0.49041 60 49 43
-0.025441 1.995877 -0.496417 142 131 125
-0.015821 2.005195 -0.498662 141 132 126
-0.006206 2.012361 -0.500438 46 37 28
0.003456 2.019095 -0.50212 146 136 127
0.01323 2.026764 -0.504007 128 118 109
0.023063 2.034163 -0.505836 184 174 164
0.032832 2.039371 -0.507186 189 179 169
0.042647 2.044516 -0.508523 187 177 168
0.053225 2.059658 -0.512045 187 177 168
0.063303 2.066292 -0.513708 186 176 167
0.073462 2.073107 -0.515411 186 176 167
0.083483 2.077508 -0.516586 186 176 167
0.093615 2.082612 -0.517913 185 175 166
0.10384 2.088145 -0.519335 184 174 165
0.114265 2.095095 -0.521067 183 173 164
0.124935 2.103698 -0.523162 182 172 162
0.135452 2.110073 -0.524768 181 171 161
0.145735 2.113801 -0.525793 179 169 159
0.155755 2.114936 -0.526247 178 168 158
0.16546 2.113351 -0.526101 168 158 148
0.175081 2.111153 -0.525819 154 144 134
0.184731 2.10924 -0.525598 154 142 130
0.194418 2.107647 -0.525445 155 143 129
0.203676 2.103058 -0.52463 152 142 128
0.212596 2.096385 -0.523353 151 142 127
0.221796 2.091874 -0.52255 150 141 127
0.230875 2.086765 -0.521613 150 140 126
0.239805 2.080942 -0.520515 150 140 126
0.248735 2.075346 -0.519465 149 140 126
0.257236 2.067459 -0.517906 149 139 127
0.265838 2.060462 -0.51654 149 139 127
0.27289 2.045186 -0.513342 150 140 127
0.281579 2.039376 -0.512231 149 139 127
0.291016 2.037658 -0.512023 149 139 126
0.302312 2.045389 -0.513902 148 138 126
0.310611 2.037699 -0.512368 148 138 126
0.314322 2.007973 -0.505953 148 138 126
0.323573 2.005783 -0.505628 148 138 126
0.33371 2.007667 -0.506204 148 138 126
0.34388 2.009479 -0.506762 148 138 126
0.353077 2.00677 -0.506316 148 138 126
0.361443 2.000433 -0.505062 147 137 124
0.369466 1.992773 -0.503513 147 138 123
0.377117 1.983749 -0.501657 148 138 123
0.384789 1.975034 -0.499866 147 137 122
0.393125 1.969176 -0.498706 147 137 122
0.40146 1.963399 -0.497562 147 137 122
0.409656 1.957167 -0.496313 146 137 123
0.418228 1.95244 -0.495395 147 137 124
0.426223 1.945618 -0.49401 146 136 124
0.434339 1.93934 -0.492742 146 137 123
0.44258 1.933587 -0.491588 145 136 121
0.450986 1.92847 -0.490573 144 135 120
0.458808 1.921387 -0.489117 144 135 121
0.467246 1.916479 -0.488143 145 135 123
0.474881 1.908947 -0.486582 144 134 122
0.481012 1.89665 -0.483957 144 134 121
0.488996 1.890538 -0.482707 144 134 122
0.496579 1.883238 -0.481189 143 133 120
0.504501 1.877087 -0.479926 143 134 119
0.512377 1.870873 -0.478646 144 134 119
0.519002 1.861 -0.476548 143 132 118
0.526262 1.853186 -0.474908 142 133 118
0.534833 1.849293 -0.47414 142 132 118
0.540587 1.837406 -0.471587 142 132 118
0.548473 1.831758 -0.470426 142 133 118
0.556285 1.825992 -0.469237 142 133 118
0.562125 1.814964 -0.466872 142 133 118
0.567902 1.80403 -0.464527 142 132 118
0.574971 1.796769 -0.463002 142 132 118
0.582666 1.791304 -0.461879 142 132 118
0.590564 1.786488 -0.460902 141 132 118
0.598264 1.781297 -0.459842 141 132 118
0.607222 1.779387 -0.459518 141 132 118
0.618379 1.78295 -0.46042 141 132 118
0.626351 1.77874 -0.459586 141 132 118
0.63237 1.770036 -0.457748 141 132 118
0.639622 1.764542 -0.456632 141 131 118
0.64803 1.76198 -0.456176 140 131 118
0.657609 1.762289 -0.456369 141 131 119
0.664924 1.757585 -0.455442 140 130 118
0.670981 1.750328 -0.453947 140 131 116
0.674235 1.737207 -0.451141 139 131 116
0.683671 1.738119 -0.451489 138 130 115
-0.798685 1.027614 -0.268104 160 152 141
-0.797452 1.034621 -0.269699 160 152 141
-0.794663 1.039648 -0.270907 161 153 142
-0.790336 1.042655 -0.271718 160 154 142
-0.785331 1.044819 -0.272366 160 154 142
-0.779937 1.046525 -0.27293 162 156 144
-0.778595 1.054273 -0.274716 162 156 144
-0.774414 1.058012 -0.275702 162 156 144
-0.771016 1.063037 -0.276954 163 156 145
-0.766923 1.06714 -0.278025 165 157 146
-0.763049 1.071681 -0.279191 165 157 146
-0.759138 1.07627 -0.28037 166 158 147
-0.755086 1.080734 -0.281528 167 159 148
-0.75195 1.08673 -0.283001 167 159 148
-0.748094 1.091688 -0.284267 169 161 150
-0.744328 1.096874 -0.285583 168 162 150
-0.740111 1.101405 -0.286767 169 162 150
-0.73629 1.106648 -0.288099 170 162 151
-0.730514 1.108708 -0.288782 172 164 153
-0.727688 1.115723 -0.290479 172 164 153
-0.722898 1.119498 -0.291514 172 164 153
-0.718496 1.123961 -0.292691 173 165 154
-0.714262 1.128752 -0.293935 174 166 155
-0.709888 1.133337 -0.295138 175 167 156
-0.705192 1.137379 -0.296228 176 168 157
-0.701944 1.144041 -0.297858 176 168 157
-0.697634 1.148847 -0.299105 177 169 158
-0.692336 1.151865 -0.299983 177 169 158
-0.687163 1.155103 -0.300905 178 170 159
-0.684154 1.16241 -0.302668 178 170 159
-0.679601 1.166861 -0.30384 178 170 159
-0.676201 1.173555 -0.305475 179 171 160
-0.6709 1.176611 -0.306356 179 171 160
-0.666714 1.181857 -0.30769 180 172 161
-0.661816 1.185717 -0.308735 181 173 162
-0.657725 1.191218 -0.31012 182 174 163
-0.652984 1.195434 -0.311236 182 174 163
-0.647528 1.198185 -0.312046 183 175 164
-0.6451 1.207268 -0.314176 183 175 164
-0.640466 1.211807 -0.315357 184 176 165
-0.635477 1.215612 -0.316384 184 176 165
-0.6306 1.219671 -0.317462 184 176 165
-0.626694 1.225888 -0.318991 185 177 166
-0.621298 1.228856 -0.319838 186 178 167
-0.6168 1.233848 -0.321109 186 178 167
-0.612466 1.239262 -0.322468 186 178 167
-0.607931 1.244274 -0.323741 186 178 167
-0.603506 1.249595 -0.325078 187 179 168
-0.598697 1.254065 -0.326236 188 180 169
-0.594369 1.259737 -0.327646 188 180 169
-0.589669 1.264575 -0.32888 188 180 169
-0.585462 1.270692 -0.330383 188 180 169
-0.579254 1.271878 -0.330843 188 180 168
-0.577525 1.284428 -0.333706 188 180 168
-0.572529 1.288823 -0.334844 189 180 169
-0.56725 1.292528 -0.335835 189 181 170
-0.561033 1.293777 -0.336304 190 181 170
-0.558343 1.304497 -0.338782 190 181 170
-0.553425 1.30937 -0.340019 190 181 170
-0.548557 1.314459 -0.341302 190 182 171
-0.543911 1.320258 -0.342736 189 181 170
-0.538996 1.325401 -0.344029 190 182 171
-0.53376 1.329703 -0.345143 190 182 171
-0.528419 1.333766 -0.346206 191 183 172
-0.525894 1.346314 -0.349079 190 182 171
-0.520552 1.350641 -0.350198 193 183 173
-0.515242 1.355146 -0.351355 193 183 173
-0.509655 1.358867 -0.352344 193 183 173
-0.505089 1.365909 -0.354043 194 184 174
-0.50037 1.372629 -0.355674 195 185 175
-0.495041 1.377513 -0.356912 195 185 175
-0.490244 1.384287 -0.358555 195 185 175
-0.485231 1.390507 -0.360079 196 186 176
-0.480462 1.39774 -0.361822 197 187 177
-0.475161 1.403295 -0.363205 198 188 178
-0.469791 1.408755 -0.364567 198 188 178
-0.464322 1.414001 -0.365884 198 188 178
-0.459332 1.421179 -0.367617 199 189 179
-0.453483 1.425312 -0.368695 199 189 179
-0.449896 1.438325 -0.371686 199 189 179
-0.444233 1.443597 -0.373011 200 190 180
-0.438345 1.448125 -0.374175 200 190 180
-0.432445 1.452737 -0.375358 201 191 181
-0.426732 1.458279 -0.376741 202 192 182
-0.421058 1.464179 -0.378203 202 192 183
-0.416209 1.473905 -0.380493 203 193 184
-0.410629 1.480737 -0.382158 203 193 184
-0.404558 1.485578 -0.383392 205 195 185
-0.398532 1.49081 -0.384712 206 194 185
-0.392504 1.496231 -0.386073 208 195 186
-0.386774 1.503334 -0.3878 209 196 187
-0.381034 1.51069 -0.389583 209 196 187
-0.37542 1.519022 -0.391579 210 197 188
-0.369147 1.524248 -0.392901 209 196 187
-0.362878 1.529723 -0.394278 209 196 187
-0.356918 1.537181 -0.396086 211 198 189
-0.351052 1.545549 -0.398095 211 199 189
-0.344881 1.552553 -0.399807 210 197 189
-0.338654 1.559574 -0.401524 211 198 189
-0.332219 1.565677 -0.403042 211 198 190
-0.326092 1.574104 -0.405068 211 198 189
-0.320105 1.583968 -0.40741 210 197 188
-0.314362 1.596136 -0.410256 209 196 188
-0.307826 1.603415 -0.412036 210 197 189
-0.301358 1.611671 -0.414031 209 196 187
-0.295124 1.622288 -0.416544 209 196 187
-0.288381 1.629601 -0.418336 209 196 187
-0.281792 1.638728 -0.420526 209 196 187
-0.275261 1.649058 -0.422981 209 196 187
-0.268956 1.662276 -0.426072 209 196 188
-0.261989 1.670376 -0.428042 208 195 187
-0.255229 1.681238 -0.430621 208 195 186
-0.248632 1.694823 -0.433799 208 195 186
-0.241405 1.702859 -0.43576 208 195 186
-0.233924 1.708776 -0.437257 211 198 189
-0.227091 1.723251 -0.440638 212 199 191
-0.219318 1.727221 -0.441709 212 199 190
-0.212491 1.744787 -0.445774 210 197 189
-0.204778 1.751569 -0.447467 209 196 187
-0.19704 1.758906 -0.449284 204 193 184
-0.189258 1.766602 -0.451181 202 192 182
-0.181667 1.779209 -0.454163 202 191 182
-0.173905 1.790651 -0.456889 197 187 177
-0.166008 1.801389 -0.459463 199 189 179
-0.158876 1.834592 -0.467004 204 191 182
-0.151096 1.857781 -0.472337 203 190 181
-0.142453 1.858572 -0.472719 202 189 181
-0.134062 1.869925 -0.475439 202 189 180
-0.125534 1.87955 -0.477778 202 189 180
-0.11701 1.895471 -0.481514 202 189 180
-0.108325 1.910026 -0.48495 202 189 180
-0.099461 1.915591 -0.486394 201 188 179
-0.090548 1.922965 -0.48824 201 188 179
-0.081545 1.935299 -0.491188 199 186 177
-0.072471 1.943079 -0.493127 197 186 176
-0.0634 1.945649 -0.493908 194 183 174
-0.055183 1.90167 -0.484338 177 165 156
-0.04552 1.936833 -0.492366 148 137 128
-0.035793 1.962532 -0.498294 43 33 26
-0.025719 1.9914 -0.504932 143 133 126
-0.015945 2.005122 -0.508201 185 175 166
-0.006303 2.01269 -0.5101 180 170 161
0.003323 2.018418 -0.51159 87 77 68
0.01315 2.026973 -0.513711 95 84 75
0.022897 2.032674 -0.515195 181 171 161
0.032645 2.037493 -0.516482 188 178 168
0.042667 2.045726 -0.518533 189 179 168
0.053067 2.058155 -0.521522 187 177 167
0.063179 2.065189 -0.523306 186 176 167
0.073259 2.07097 -0.52481 185 175 165
0.083418 2.076978 -0.526365 185 175 165
0.093825 2.085062 -0.528385 184 174 164
0.103933 2.089121 -0.529503 183 173 164
0.114167 2.094011 -0.530807 181 171 162
0.124765 2.10187 -0.532777 179 169 159
0.135434 2.109632 -0.534726 179 169 159
0.145781 2.113841 -0.535877 178 168 159
0.155807 2.114937 -0.536328 177 167 157
0.165277 2.111373 -0.535732 166 156 146
0.175012 2.110054 -0.535637 154 144 134
0.184775 2.108961 -0.535592 153 143 131
0.194428 2.107058 -0.535363 153 142 128
0.203587 2.101726 -0.534361 152 142 127
0.212662 2.096077 -0.533284 150 141 126
0.221807 2.091155 -0.532369 150 140 126
0.230906 2.086133 -0.531429 149 139 125
0.239893 2.080623 -0.530376 149 139 125
0.248984 2.075945 -0.529508 149 139 125
0.256724 2.063556 -0.526898 149 138 126
0.265008 2.054813 -0.525107 149 138 126
0.27454 2.053306 -0.524947 149 139 126
0.283528 2.048845 -0.524117 148 138 126
0.293158 2.047848 -0.524068 148 138 125
0.301743 2.041447 -0.522795 148 137 125
0.308262 2.024961 -0.519239 148 137 125
0.314508 2.007809 -0.515527 147 137 126
0.324565 2.0094 -0.516053 147 137 126
0.334182 2.008747 -0.516069 147 137 126
0.344044 2.009099 -0.516311 147 137 126
0.353025 2.0054 -0.515633 147 137 125
0.361357 1.998915 -0.514322 146 136 124
0.368903 1.98923 -0.512282 148 138 124
0.377395 1.983734 -0.511189 146 137 123
0.385637 1.977304 -0.509881 146 136 124
0.393294 1.968662 -0.508068 146 137 124
0.401586 1.962693 -0.506859 146 136 124
0.409976 1.957185 -0.505752 146 136 124
0.41834 1.951645 -0.504635 146 136 123
0.426323 1.944763 -0.503211 146 136 124
0.434199 1.937605 -0.501721 145 135 123
0.442257 1.931205 -0.5004 144 135 120
0.449302 1.921362 -0.498294 145 136 121
0.457001 1.913959 -0.49674 145 136 121
0.466024 1.911118 -0.496222 144 135 120
0.474837 1.907538 -0.495534 143 133 121
0.482347 1.899711 -0.493876 143 133 122
0.489646 1.891333 -0.49209 144 134 122
0.496848 1.8828 -0.490266 143 133 121
0.504405 1.875503 -0.488722 142 133 119
0.512434 1.869748 -0.487528 142 133 118
0.518695 1.858783 -0.485143 143 131 117
0.527402 1.855223 -0.484446 142 132 117
0.538532 1.858657 -0.485343 142 132 118
0.54829 1.85798 -0.485302 142 132 118
0.552192 1.840837 -0.4815 142 132 118
0.559379 1.833178 -0.479863 142 132 118
0.565753 1.823467 -0.477755 142 132 118
0.569012 1.80565 -0.473795 142 132 118
0.577077 1.800958 -0.472833 141 132 118
0.581823 1.787747 -0.469923 141 132 118
0.589554 1.782522 -0.468839 141 131 118
0.598456 1.780386 -0.468463 141 131 118
0.602486 1.766196 -0.46533 141 132 117
0.614011 1.770801 -0.466499 141 132 117
0.628543 1.782594 -0.469317 141 131 117
0.632509 1.768905 -0.466303 141 131 117
0.639331 1.762379 -0.464932 140 131 117
0.649073 1.762907 -0.46518 140 130 117
0.658443 1.762681 -0.465259 140 130 117
0.665007 1.756232 -0.463915 140 130 118
0.669591 1.745656 -0.461628 140 131 116
0.677185 1.742169 -0.460971 139 130 115
0.686628 1.742994 -0.461308 139 130 115
-0.798311 1.02561 -0.273263 160 152 141
-0.800748 1.037746 -0.275948 160 152 141
-0.794536 1.03798 -0.276189 160 153 142
-0.789778 1.040376 -0.276882 160 154 142
-0.785269 1.043252 -0.277682 160 154 142
-0.782886 1.049335 -0.279151 161 155 143
-0.778554 1.052736 -0.280072 162 156 144
-0.774829 1.057152 -0.281209 163 156 145
-0.770566 1.060889 -0.28221 164 156 145
-0.767025 1.06582 -0.283465 165 157 146
-0.762551 1.069448 -0.284453 166 158 147
-0.760012 1.076142 -0.286084 166 158 147
-0.755698 1.080212 -0.287172 166 158 147
-0.751573 1.084656 -0.288342 167 160 148
-0.747793 1.089727 -0.289646 166 160 148
-0.74333 1.093785 -0.29074 167 161 149
-0.740137 1.099961 -0.29228 169 163 151
-0.735913 1.104538 -0.293487 171 163 152
-0.733072 1.111465 -0.295188 171 164 152
-0.728236 1.115146 -0.29621 171 163 152
-0.723553 1.119109 -0.297292 172 164 153
-0.719028 1.123371 -0.298437 173 165 154
-0.714794 1.128165 -0.299695 173 165 154
-0.714051 1.139133 -0.302255 174 166 155
-0.707389 1.13976 -0.302634 175 167 156
-0.701271 1.141305 -0.303205 175 167 156
-0.697152 1.146436 -0.304533 177 169 158
-0.692562 1.150742 -0.305687 177 169 158
-0.687835 1.154809 -0.306789 178 170 159
-0.688508 1.169047 -0.310049 178 170 159
-0.681517 1.168947 -0.310266 178 170 159
-0.676291 1.172158 -0.311185 179 171 160
-0.673012 1.17915 -0.312907 179 171 160
-0.666268 1.179392 -0.313191 180 172 161
-0.661621 1.183737 -0.314347 180 172 161
-0.657023 1.188199 -0.315528 180 172 161
-0.652572 1.192983 -0.316776 182 174 163
-0.64759 1.196699 -0.317795 183 175 164
-0.644565 1.204518 -0.319691 183 175 164
-0.639165 1.207412 -0.320532 183 175 164
-0.635507 1.214031 -0.32217 184 176 165
-0.63138 1.21971 -0.323607 185 177 166
-0.626809 1.224477 -0.324847 185 177 166
-0.622337 1.229499 -0.326141 187 176 167
-0.617568 1.233898 -0.3273 187 177 167
-0.613635 1.240242 -0.328878 187 178 168
-0.609247 1.245617 -0.330246 187 179 168
-0.604193 1.249491 -0.33129 187 179 168
-0.59915 1.253415 -0.332344 188 179 169
-0.595544 1.26083 -0.334151 189 179 169
-0.590598 1.265096 -0.335278 189 181 170
-0.585959 1.270162 -0.336577 189 181 170
-0.582649 1.278625 -0.338611 188 180 169
-0.578528 1.28519 -0.340234 188 180 169
-0.573353 1.289146 -0.341291 189 180 169
-0.56753 1.291451 -0.34199 189 180 169
-0.56201 1.294552 -0.34286 190 180 170
-0.556776 1.298445 -0.343901 190 181 171
-0.553311 1.30721 -0.346002 190 181 171
-0.548857 1.313428 -0.347549 190 182 171
-0.543922 1.318416 -0.348828 190 182 171
-0.538795 1.322937 -0.350005 190 182 171
-0.535277 1.332193 -0.352215 191 183 172
-0.531341 1.340443 -0.354206 190 182 171
-0.526146 1.345128 -0.355419 191 183 172
-0.520767 1.349344 -0.35653 192 182 172
-0.515082 1.352688 -0.357449 193 183 173
-0.509895 1.357644 -0.358721 193 183 173
-0.504313 1.361446 -0.35974 194 184 174
-0.500149 1.369903 -0.361779 194 184 174
-0.49539 1.376634 -0.363441 195 185 175
-0.490922 1.384511 -0.365354 195 185 175
-0.485701 1.390047 -0.366755 196 186 176
-0.480545 1.395944 -0.368235 197 187 177
-0.476017 1.404216 -0.370237 197 187 177
-0.470237 1.408241 -0.371306 198 188 178
-0.464926 1.414074 -0.372774 198 188 178
-0.45961 1.420058 -0.374274 198 188 178
-0.454619 1.427457 -0.376088 199 189 179
-0.4501 1.436917 -0.378357 200 190 180
-0.444647 1.443012 -0.379884 201 191 181
-0.438663 1.447164 -0.380984 200 190 180
-0.432889 1.452302 -0.382301 202 192 182
-0.427252 1.458182 -0.383782 203 193 184
-0.421561 1.464033 -0.385258 202 192 183
-0.416254 1.471771 -0.387152 203 193 184
-0.410691 1.478659 -0.388859 204 194 185
-0.404907 1.484799 -0.390402 205 194 185
-0.398888 1.490072 -0.391752 207 194 185
-0.393145 1.496873 -0.393443 208 195 186
-0.387205 1.502989 -0.394982 209 196 187
-0.3812 1.509033 -0.396506 209 196 187
-0.37579 1.518411 -0.398771 210 197 188
-0.369607 1.524131 -0.400225 210 197 188
-0.363334 1.52962 -0.401628 210 197 188
-0.357229 1.536299 -0.403297 210 197 188
-0.351214 1.543824 -0.405155 211 198 189
-0.34524 1.551983 -0.407156 211 198 189
-0.338961 1.55871 -0.408839 211 198 189
-0.332474 1.564503 -0.410314 211 198 189
-0.326777 1.57572 -0.413001 211 198 189
-0.320395 1.583043 -0.41482 210 197 188
-0.314494 1.594125 -0.417481 210 197 188
-0.308297 1.603808 -0.41983 210 197 189
-0.301773 1.611712 -0.421784 209 196 188
-0.29501 1.618313 -0.423448 209 196 188
-0.288555 1.627826 -0.425764 209 196 188
-0.282188 1.638784 -0.428406 209 196 188
-0.276427 1.655838 -0.432416 209 196 188
-0.26944 1.663252 -0.434268 209 196 188
-0.26223 1.669168 -0.435785 209 196 187
-0.255331 1.678662 -0.438107 208 195 186
-0.248346 1.688155 -0.44043 208 195 187
-0.24153 1.700418 -0.443376 205 192 183
-0.233817 1.703608 -0.444286 203 190 181
-0.226268 1.709116 -0.445717 206 193 185
-0.219213 1.721639 -0.448728 205 193 186
-0.211928 1.732576 -0.451384 203 191 184
-0.205582 1.758927 -0.457514 199 187 181
-0.197558 1.76238 -0.458489 188 179 172
-0.189542 1.766456 -0.459605 139 130 123
-0.181854 1.777347 -0.462258 42 33 27
-0.174314 1.793383 -0.466075 88 79 74
-0.166698 1.81109 -0.470273 181 171 163
-0.159305 1.838871 -0.47675 202 191 181
-0.150894 1.844169 -0.47815 203 190 181
-0.14282 1.862692 -0.482542 203 190 181
-0.134205 1.865924 -0.483478 203 190 181
-0.125706 1.876548 -0.486087 202 189 180
-0.117234 1.895609 -0.490609 202 189 180
-0.108468 1.902896 -0.492467 201 188 179
-0.099657 1.914114 -0.495216 201 188 179
-0.090744 1.927795 -0.498527 200 187 178
-0.081732 1.934963 -0.500362 198 186 177
-0.072662 1.941497 -0.502053 196 186 176
-0.063555 1.9464 -0.503375 193 183 173
-0.055361 1.900303 -0.493106 177 166 157
-0.045434 1.946665 -0.50385 150 139 130
-0.035722 1.969882 -0.509338 45 34 26
-0.02601 1.986465 -0.51332 139 128 120
-0.01632 1.998341 -0.516234 183 171 163
-0.006827 2.002939 -0.517491 186 177 167
0.003538 2.025056 -0.522742 175 162 153
0.01318 2.029249 -0.523909 132 122 112
0.022794 2.032226 -0.524798 183 173 163
0.032652 2.038711 -0.526488 189 179 169
0.042902 2.050155 -0.529311 188 178 168
0.052913 2.056671 -0.53101 186 176 167
0.062985 2.06314 -0.532698 186 176 167
0.072996 2.068051 -0.53403 185 175 165
0.083551 2.078742 -0.536685 184 174 164
0.093905 2.086023 -0.53856 183 173 163
0.104055 2.090371 -0.539765 181 171 161
0.114195 2.094144 -0.540837 181 171 161
0.12446 2.098711 -0.542091 180 170 160
0.135303 2.10811 -0.544453 178 168 158
0.145736 2.113048 -0.545792 178 167 158
0.155539 2.112207 -0.545805 176 166 156
0.165274 2.110809 -0.545689 166 156 146
0.174926 2.108787 -0.545428 153 143 131
0.184595 2.106955 -0.545209 150 141 127
0.194142 2.104275 -0.544794 150 141 126
0.203441 2.09995 -0.543998 151 142 127
0.212561 2.0946 -0.542964 149 140 125
0.22179 2.090208 -0.542149 149 139 125
0.230982 2.085745 -0.541315 149 138 124
0.240129 2.081171 -0.540454 148 138 124
0.249496 2.078077 -0.539931 148 137 124
0.257271 2.065773 -0.537283 148 137 124
0.264377 2.050256 -0.533891 148 137 125
0.274803 2.053741 -0.534878 148 138 125
0.284234 2.051594 -0.534565 148 137 125
0.293694 2.049583 -0.534281 147 137 124
0.301981 2.041575 -0.532611 147 137 124
0.307787 2.021501 -0.528149 147 136 124
0.314444 2.006393 -0.52483 147 137 125
0.324386 2.007425 -0.525239 147 137 125
0.335015 2.011456 -0.526341 147 136 125
0.34432 2.009182 -0.525984 147 136 125
0.353028 2.004236 -0.525005 147 136 125
0.36125 1.997258 -0.523554 146 136 124
0.369475 1.990451 -0.522139 146 136 124
0.377844 1.984381 -0.520893 146 136 124
0.385936 1.977295 -0.519409 146 136 124
0.393603 1.968657 -0.517562 146 136 124
0.40192 1.962753 -0.516346 146 136 124
0.410343 1.957337 -0.515242 145 135 123
0.418865 1.952352 -0.514235 145 135 122
0.427183 1.946656 -0.513061 145 136 121
0.43471 1.93817 -0.511236 145 135 122
0.442466 1.930661 -0.509635 145 134 122
0.449849 1.921976 -0.507759 145 136 121
0.457288 1.913645 -0.505962 144 135 120
0.465463 1.90793 -0.504771 144 135 120
0.47397 1.903365 -0.503846 144 133 121
0.482299 1.898235 -0.502788 142 132 120
0.489881 1.890759 -0.501181 143 133 121
0.497503 1.88352 -0.499627 143 133 121
0.504702 1.875084 -0.497793 141 132 119
0.511515 1.865626 -0.495718 141 132 117
0.520169 1.86183 -0.494961 142 131 117
0.529604 1.860324 -0.494737 141 131 117
0.540519 1.863023 -0.495492 141 131 117
0.549162 1.859074 -0.494697 141 131 117
0.554832 1.846839 -0.491967 141 131 118
0.559876 1.833159 -0.488898 141 132 118
0.566539 1.824206 -0.486931 142 132 118
0.575463 1.821487 -0.486419 141 132 118
0.582853 1.814756 -0.48497 141 131 118
0.586802 1.799253 -0.48147 141 131 118
0.5978 1.802182 -0.482279 141 131 117
0.596816 1.774819 -0.476004 141 131 117
0.600904 1.760825 -0.472856 141 131 117
0.61062 1.76103 -0.473029 140 131 117
0.62562 1.77404 -0.476202 140 131 117
0.63392 1.770776 -0.475569 140 130 116
0.640524 1.763677 -0.474039 140 130 116
0.649441 1.762232 -0.473837 139 130 117
0.65848 1.761217 -0.473738 140 131 116
0.663588 1.751451 -0.47159 139 129 117
0.669709 1.744345 -0.470069 138 129 115
0.677843 1.742028 -0.469674 138 129 114
0.687908 1.744176 -0.470331 138 129 114
-0.811031 1.041735 -0.282248 160 152 141
-0.799773 1.034883 -0.280978 159 151 140
-0.795904 1.038416 -0.281912 160 152 141
-0.790447 1.039839 -0.282405 160 153 141
-0.786642 1.043736 -0.283429 159 153 141
-0.783831 1.049215 -0.284795 161 155 143
-0.77989 1.053205 -0.285851 161 155 143
-0.775291 1.056347 -0.286731 163 155 144
-0.771105 1.060207 -0.287768 163 156 145
-0.766843 1.064058 -0.288809 164 156 145
-0.764186 1.070451 -0.290396 165 157 146
-0.759974 1.074592 -0.291506 165 157 146
-0.755984 1.079165 -0.292712 166 159 147
-0.751555 1.083134 -0.293791 167 160 148
-0.747628 1.08797 -0.295059 167 161 149
-0.745287 1.095428 -0.296892 168 162 150
-0.739815 1.097934 -0.297664 168 162 150
-0.735992 1.103159 -0.299022 170 164 152
-0.732476 1.108964 -0.300506 171 164 152
-0.728547 1.11415 -0.301858 172 164 153
-0.723774 1.117963 -0.302915 173 165 154
-0.719354 1.122404 -0.304108 173 165 154
-0.715521 1.127897 -0.305529 174 166 155
-0.712574 1.134998 -0.307298 174 166 155
-0.707614 1.138616 -0.308314 177 169 158
-0.70247 1.14191 -0.309259 177 169 158
-0.697467 1.145455 -0.310258 177 169 158
-0.692788 1.149598 -0.311386 177 169 158
-0.688051 1.153646 -0.312493 178 170 159
-0.685603 1.162006 -0.314537 179 171 160
-0.68138 1.167101 -0.315872 178 170 159
-0.676765 1.17148 -0.317049 179 171 160
-0.674095 1.179659 -0.319055 178 170 159
-0.668007 1.181214 -0.319615 180 172 161
-0.661746 1.182378 -0.320088 180 172 161
-0.658821 1.190209 -0.322017 181 173 162
-0.653921 1.194112 -0.323087 182 174 163
-0.648466 1.196877 -0.323906 183 175 164
-0.645102 1.203997 -0.325679 183 175 164
-0.639676 1.206843 -0.326514 183 175 164
-0.634632 1.210492 -0.327524 184 176 165
-0.631568 1.218447 -0.329479 184 176 165
-0.627336 1.223952 -0.330896 185 176 166
-0.623062 1.229421 -0.332305 186 176 166
-0.61789 1.232924 -0.33328 186 176 166
-0.612943 1.23695 -0.334369 186 178 167
-0.609827 1.245236 -0.336399 187 179 168
-0.605347 1.250463 -0.337752 187 179 168
-0.600227 1.254232 -0.338783 188 180 169
-0.595832 1.259769 -0.340205 188 180 169
-0.591958 1.266646 -0.341923 188 180 169
-0.588011 1.273456 -0.343626 188 180 169
-0.581232 1.273286 -0.343782 189 181 170
-0.578495 1.283301 -0.346195 189 181 170
-0.573519 1.287758 -0.347376 188 180 169
-0.568286 1.291602 -0.34842 189 181 170
-0.562726 1.294617 -0.34928 189 181 170
-0.55763 1.298897 -0.35042 189 181 170
-0.552825 1.304027 -0.351749 190 182 171
-0.549216 1.312548 -0.353833 190 182 171
-0.544227 1.317384 -0.355097 190 182 171
-0.540037 1.324576 -0.356886 190 182 171
-0.536183 1.332896 -0.358927 191 183 172
-0.531636 1.339376 -0.360559 191 182 172
-0.526163 1.343231 -0.361604 192 182 171
-0.520332 1.346066 -0.36242 192 182 172
-0.515724 1.352692 -0.364085 194 184 174
-0.510123 1.356372 -0.36509 194 184 174
-0.505878 1.36442 -0.367074 194 184 174
-0.500884 1.37026 -0.368564 194 184 174
-0.495691 1.375588 -0.369939 195 185 175
-0.49155 1.384556 -0.372131 196 186 176
-0.486072 1.389237 -0.373362 197 187 177
-0.48017 1.392558 -0.374287 197 187 177
-0.476503 1.403818 -0.376998 197 187 177
-0.471005 1.408867 -0.378313 198 188 178
-0.465634 1.414517 -0.379763 197 187 178
-0.460148 1.419898 -0.381153 198 188 178
-0.454029 1.423035 -0.382038 199 189 179
-0.449344 1.431784 -0.384189 200 190 180
-0.444412 1.439855 -0.386188 200 190 180
-0.438944 1.446048 -0.387764 200 190 180
-0.433365 1.45199 -0.389283 202 192 183
-0.427875 1.458505 -0.390934 203 193 184
-0.421992 1.463567 -0.392256 203 193 184
-0.416565 1.470793 -0.394069 203 193 184
-0.410961 1.477502 -0.395765 204 194 184
-0.404924 1.482487 -0.397072 207 194 185
-0.399226 1.489245 -0.398781 206 195 185
-0.393469 1.495986 -0.400488 206 196 186
-0.387389 1.501426 -0.4019 209 196 187
-0.381804 1.509579 -0.403929 209 196 187
-0.376233 1.518168 -0.406058 210 197 188
-0.370033 1.523827 -0.407522 210 197 188
-0.363773 1.529417 -0.408972 211 198 189
-0.357485 1.535105 -0.410445 211 198 189
-0.351661 1.543733 -0.412588 211 198 189
-0.345863 1.55296 -0.414869 211 198 189
-0.339506 1.559286 -0.41649 211 198 189
-0.333169 1.566078 -0.418218 211 198 189
-0.326971 1.574146 -0.420239 210 197 188
-0.320722 1.58235 -0.422292 209 196 187
-0.314639 1.592197 -0.424722 210 197 188
-0.308382 1.601429 -0.427013 210 197 189
-0.301748 1.608486 -0.428809 209 196 188
-0.295241 1.616989 -0.430936 210 197 188
-0.288416 1.623557 -0.432623 209 196 188
-0.282969 1.642025 -0.437034 209 196 188
-0.276554 1.653609 -0.439873 209 196 188
-0.269695 1.662154 -0.442017 208 195 186
-0.262508 1.668312 -0.443616 208 195 186
-0.25559 1.677643 -0.445943 208 195 186
-0.248465 1.685707 -0.447982 207 194 185
-0.241385 1.695037 -0.450312 198 185 176
-0.233723 1.698618 -0.451324 190 177 169
-0.225787 1.699202 -0.451647 187 174 167
-0.219412 1.720026 -0.456624 51 40 35
-0.212751 1.739584 -0.461314 38 29 24
-0.206878 1.77352 -0.469317 40 29 24
-0.198456 1.771892 -0.469138 39 30 25
-0.190545 1.778732 -0.470909 42 32 27
-0.183582 1.804564 -0.477059 162 153 145
-0.175988 1.822345 -0.481357 123 112 105
-0.168255 1.840713 -0.485795 174 164 155
-0.159772 1.844096 -0.486776 201 191 181
-0.151361 1.850396 -0.488432 203 190 181
-0.142931 1.857973 -0.490384 203 190 181
-0.13451 1.86869 -0.493062 202 189 181
-0.126149 1.887489 -0.497612 202 189 181
-0.117408 1.892409 -0.498954 201 188 181
-0.108617 1.896469 -0.500097 200 187 180
-0.09987 1.915983 -0.504821 199 187 179
-0.090936 1.923785 -0.506834 199 187 178
-0.081919 1.934416 -0.509503 196 186 177
-0.072795 1.946085 -0.512416 195 185 176
-0.063722 1.946316 -0.512676 193 183 174
-0.055507 1.900543 -0.502254 178 165 156
-0.045238 1.961208 -0.516546 152 139 131
-0.035727 1.974518 -0.519845 142 130 122
-0.026082 1.988128 -0.523216 143 131 123
-0.016644 1.992843 -0.52452 152 139 131
-0.007251 1.995462 -0.525337 190 177 168
0.003316 2.022402 -0.531816 174 162 153
0.013049 2.028393 -0.533421 133 123 114
0.022741 2.032654 -0.534623 182 172 163
0.032608 2.039071 -0.536328 189 179 170
0.042661 2.047351 -0.538468 188 178 169
0.052773 2.055333 -0.540539 186 176 167
0.062933 2.062915 -0.542518 185 175 166
0.073293 2.072031 -0.544856 184 174 164
0.083285 2.075787 -0.545942 183 173 163
0.093604 2.082715 -0.54777 182 172 162
0.10388 2.088445 -0.549318 181 171 161
0.114014 2.092152 -0.550393 180 170 160
0.124247 2.096395 -0.551594 179 169 160
0.134984 2.104827 -0.553775 178 168 158
0.145399 2.109651 -0.555112 176 166 157
0.155605 2.112251 -0.555928 175 165 155
0.165332 2.110703 -0.55577 163 153 143
0.174981 2.108574 -0.555475 152 143 129
0.184557 2.105973 -0.555068 150 141 126
0.193991 2.102435 -0.554439 150 141 126
0.203286 2.098072 -0.553616 150 141 126
0.212393 2.09263 -0.552536 149 139 124
0.22157 2.087886 -0.551619 148 138 124
0.23074 2.083294 -0.550735 148 138 124
0.240156 2.080389 -0.550246 148 137 123
0.249903 2.079532 -0.550237 147 136 123
0.257443 2.065771 -0.547189 147 136 123
0.263279 2.043017 -0.54202 147 137 124
0.27303 2.042922 -0.542184 147 137 124
0.284152 2.050069 -0.544053 147 136 124
0.292112 2.040215 -0.541914 147 136 123
0.30158 2.038406 -0.54167 146 136 123
0.309427 2.028509 -0.539516 146 136 123
0.314025 2.00321 -0.533723 146 136 124
0.324128 2.005032 -0.534328 146 136 124
0.334831 2.009412 -0.535538 146 136 124
0.344139 2.007156 -0.535179 146 136 124
0.353236 2.003929 -0.534588 147 136 125
0.361784 1.99833 -0.533435 145 135 123
0.369694 1.990126 -0.531663 145 135 123
0.377913 1.983406 -0.53024 146 136 124
0.385213 1.973089 -0.527963 146 136 124
0.393779 1.968077 -0.52694 145 135 123
0.402371 1.96322 -0.525951 145 135 122
0.410606 1.957041 -0.524646 145 136 121
0.419266 1.952544 -0.523739 144 135 120
0.427482 1.946438 -0.522448 145 135 120
0.435182 1.93855 -0.520732 147 135 120
0.443171 1.931825 -0.51929 145 133 121
0.451118 1.92505 -0.517833 144 134 122
0.458565 1.916662 -0.515992 145 134 122
0.467561 1.913617 -0.515417 145 133 121
0.474256 1.902948 -0.51303 145 133 121
0.482376 1.897118 -0.51179 144 132 120
0.48983 1.889225 -0.510057 143 133 121
0.497394 1.881804 -0.508435 142 132 120
0.504327 1.87255 -0.506375 141 131 119
0.511872 1.86532 -0.504794 141 132 117
0.519257 1.857719 -0.503124 140 130 116
0.528165 1.854704 -0.502544 141 130 116
0.540302 1.860978 -0.504177 141 130 116
0.550979 1.862803 -0.50475 141 130 116
0.552321 1.838393 -0.499068 141 130 117
0.5556 1.819964 -0.494809 141 131 118
0.565107 1.818887 -0.494687 141 131 118
0.572275 1.81153 -0.493066 141 131 118
0.58023 1.806399 -0.491976 141 131 117
0.587056 1.798449 -0.490213 141 131 117
0.602899 1.813729 -0.493999 140 130 117
0.601028 1.783956 -0.487022 140 130 117
0.602432 1.763148 -0.482185 140 130 117
0.610547 1.759362 -0.481416 140 130 117
0.625249 1.771627 -0.484488 139 130 116
0.63474 1.771198 -0.484527 139 130 116
0.642403 1.766556 -0.483558 139 130 116
0.649404 1.760589 -0.482275 139 129 116
0.657048 1.756358 -0.481408 139 130 115
0.666487 1.75643 -0.481575 138 129 114
0.670134 1.743697 -0.478676 139 129 116
0.677052 1.738665 -0.477624 138 129 114
0.687468 1.741577 -0.47848 137 129 114
-0.805876 1.033087 -0.286051 159 151 140
-0.798636 1.031792 -0.285942 159 151 140
-0.796498 1.037749 -0.287415 159 151 140
-0.791005 1.039132 -0.2879 159 153 141
-0.78748 1.043438 -0.289026 159 153 141
-0.783703 1.04753 -0.290111 161 155 143
-0.779496 1.051127 -0.291093 161 155 143
-0.775501 1.055157 -0.292174 161 155 143
-0.771742 1.059657 -0.293362 162 156 144
-0.767968 1.064251 -0.294575 163 157 145
-0.76469 1.069714 -0.295982 164 158 146
-0.760271 1.073543 -0.297034 165 158 147
-0.755557 1.076994 -0.298006 166 159 147
-0.752669 1.083374 -0.299624 166 158 147
-0.749563 1.089525 -0.301195 168 160 149
-0.745274 1.093887 -0.302375 169 161 150
-0.74085 1.098091 -0.303521 169 162 150
-0.735994 1.101638 -0.304524 170 163 151
-0.732188 1.106956 -0.305918 172 164 153
-0.728554 1.112627 -0.307392 172 164 153
-0.723964 1.116746 -0.308524 173 165 154
-0.719456 1.121035 -0.309694 172 165 154
-0.717352 1.129519 -0.311793 175 167 156
-0.712718 1.133692 -0.312938 175 167 156
-0.707637 1.137094 -0.313912 176 168 157
-0.702944 1.141193 -0.31504 176 168 157
-0.69872 1.146156 -0.31636 176 168 157
-0.693644 1.14959 -0.31734 177 169 158
-0.689292 1.154366 -0.318617 178 170 159
-0.686435 1.161972 -0.320526 178 170 159
-0.681886 1.166461 -0.321739 178 170 159
-0.676444 1.169254 -0.322574 179 171 160
-0.671672 1.17333 -0.323693 179 171 160
-0.667191 1.177988 -0.324943 180 172 161
-0.663154 1.183553 -0.326394 180 172 161
-0.659624 1.190187 -0.328086 182 174 163
-0.655227 1.195128 -0.329397 182 174 163
-0.650572 1.199571 -0.330597 183 175 164
-0.644866 1.201843 -0.331308 183 175 164
-0.640588 1.207102 -0.332689 183 175 164
-0.635664 1.211026 -0.33377 184 176 165
-0.631692 1.217028 -0.335317 184 175 164
-0.62736 1.222307 -0.336702 187 177 167
-0.624055 1.229919 -0.338612 187 177 167
-0.618035 1.231536 -0.33917 187 177 167
-0.615928 1.242032 -0.341731 187 178 167
-0.610519 1.245094 -0.342615 187 179 168
-0.605041 1.247999 -0.343461 187 179 168
-0.601026 1.254369 -0.345091 189 179 169
-0.596581 1.259799 -0.346508 188 179 169
-0.592675 1.26661 -0.348238 188 180 169
-0.587049 1.269289 -0.349032 188 180 169
-0.5834 1.27691 -0.350945 188 180 169
-0.578175 1.280673 -0.351984 189 181 170
-0.574283 1.287896 -0.353808 189 181 170
-0.568931 1.291447 -0.354797 189 181 170
-0.56387 1.295797 -0.355968 189 181 170
-0.559149 1.301113 -0.357359 189 181 170
-0.554236 1.305997 -0.358651 191 183 172
-0.550169 1.313293 -0.360493 190 182 171
-0.545289 1.318463 -0.361851 190 182 170
-0.539199 1.320281 -0.362444 191 183 172
-0.535308 1.328438 -0.364483 190 182 170
-0.531538 1.337142 -0.366649 190 182 171
-0.526145 1.341221 -0.367758 193 183 172
-0.521893 1.348819 -0.369672 193 183 173
-0.516806 1.354032 -0.371041 193 183 173
-0.511589 1.358951 -0.372343 193 183 173
-0.506884 1.365598 -0.374041 194 184 174
-0.501646 1.370689 -0.375383 194 184 174
-0.496124 1.374963 -0.376538 195 185 175
-0.491526 1.382409 -0.378421 196 186 176
-0.486354 1.388111 -0.379904 196 186 176
-0.482352 1.398 -0.38235 197 187 177
-0.476867 1.402979 -0.383669 197 187 177
-0.471202 1.407437 -0.384868 198 188 179
-0.466213 1.414474 -0.386661 198 188 179
-0.460365 1.418535 -0.387769 199 189 179
-0.455416 1.4261 -0.389685 200 190 179
-0.450048 1.432291 -0.391286 200 190 179
-0.444219 1.436863 -0.392513 200 190 180
-0.438817 1.443283 -0.394168 201 191 181
-0.433801 1.4515 -0.396238 202 192 182
-0.428328 1.458103 -0.397937 202 192 182
-0.422275 1.462455 -0.399116 203 193 183
-0.41685 1.469695 -0.400964 203 193 183
-0.41118 1.476112 -0.402622 204 194 184
-0.40529 1.481768 -0.404105 207 194 185
-0.399246 1.486921 -0.405472 207 195 186
-0.393531 1.49384 -0.407249 206 196 186
-0.387762 1.500783 -0.409033 209 196 187
-0.381901 1.507564 -0.41078 209 196 187
-0.376377 1.516375 -0.412999 211 198 189
-0.370434 1.523381 -0.414801 210 197 188
-0.364064 1.528398 -0.416142 211 198 189
-0.357822 1.534359 -0.417703 211 198 189
-0.351753 1.541596 -0.419561 211 198 189
-0.346209 1.552295 -0.422226 211 198 189
-0.340246 1.561036 -0.424438 211 198 189
-0.333844 1.56752 -0.426125 211 198 189
-0.327331 1.573645 -0.42773 210 197 188
-0.321188 1.582577 -0.42999 210 197 188
-0.315031 1.591966 -0.432358 211 198 189
-0.308591 1.599934 -0.434397 210 197 189
-0.30188 1.606425 -0.436092 209 196 187
-0.295549 1.61625 -0.438567 209 196 187
-0.288634 1.622137 -0.440123 209 196 187
-0.283054 1.639478 -0.444359 209 196 187
-0.27646 1.64948 -0.446881 209 196 187
-0.269673 1.658544 -0.449186 208 195 186
-0.262711 1.666731 -0.451286 208 195 186
-0.25567 1.674856 -0.453374 208 195 186
-0.249025 1.687829 -0.4566 208 195 186
-0.241625 1.693864 -0.458201 199 186 177
-0.233521 1.692401 -0.458043 179 166 157
-0.225293 1.689172 -0.45747 75 64 58
-0.220784 1.733585 -0.468087 80 68 63
-0.214064 1.753315 -0.472912 117 104 101
-0.206597 1.764723 -0.475785 123 112 106
-0.198661 1.770311 -0.477291 196 185 178
-0.191001 1.781495 -0.480115 202 191 183
-0.183512 1.797791 -0.484144 194 184 175
-0.175477 1.805936 -0.486257 126 116 107
-0.168361 1.836822 -0.49373 164 154 145
-0.159784 1.837546 -0.494098 201 190 181
-0.151469 1.846051 -0.496301 203 190 181
-0.143266 1.860988 -0.500024 201 188 179
-0.134782 1.87008 -0.50237 201 188 179
-0.12634 1.88547 -0.506204 201 188 180
-0.117595 1.890096 -0.507498 201 188 180
-0.108958 1.909468 -0.512279 201 188 180
-0.100071 1.915655 -0.513945 200 188 179
-0.091129 1.923179 -0.515928 198 187 179
-0.082106 1.933693 -0.51862 196 186 177
-0.073004 1.94233 -0.520869 196 185 176
-0.063915 1.944205 -0.521517 194 183 174
-0.055604 1.903436 -0.512055 179 166 158
-0.04546 1.957848 -0.525159 149 136 128
-0.035757 1.978238 -0.530201 137 124 117
-0.026165 1.9894 -0.533056 135 124 118
-0.016786 1.992112 -0.533907 155 144 136
-0.007091 2.001683 -0.536387 187 177 169
0.002772 2.012904 -0.53926 172 161 154
0.012654 2.02242 -0.54173 131 120 112
0.022729 2.033743 -0.544631 183 173 164
0.03255 2.039159 -0.546128 188 178 169
0.042453 2.045015 -0.54773 187 177 168
0.052707 2.055 -0.550317 185 175 166
0.063234 2.067307 -0.553458 184 174 165
0.073206 2.071214 -0.554598 184 174 165
0.083251 2.075511 -0.555831 183 173 164
0.093583 2.082483 -0.557703 181 172 162
0.103629 2.085686 -0.558676 180 170 160
0.113812 2.089902 -0.559891 179 169 159
0.124482 2.09833 -0.562112 178 168 158
0.13487 2.10338 -0.563526 176 166 157
0.145507 2.110115 -0.565344 175 165 156
0.155804 2.113377 -0.566332 175 165 156
0.165492 2.111375 -0.566059 165 155 145
0.175051 2.108447 -0.565563 153 141 130
0.184618 2.105699 -0.56511 152 141 127
0.194024 2.10189 -0.5644 151 140 125
0.203363 2.097782 -0.563618 151 140 125
0.212593 2.093105 -0.562697 149 138 124
0.221721 2.087962 -0.561662 148 137 123
0.230885 2.083265 -0.560733 147 136 123
0.2402 2.079673 -0.560068 147 136 122
0.249883 2.078393 -0.559956 147 136 122
0.258166 2.068927 -0.557876 146 135 122
0.264618 2.049523 -0.553404 146 135 123
0.273985 2.047087 -0.553008 146 136 123
0.284584 2.051258 -0.554201 146 135 123
0.292696 2.042114 -0.552189 146 135 122
0.299523 2.026771 -0.548681 146 135 122
0.311137 2.035814 -0.551044 146 135 122
0.314768 2.005619 -0.543952 146 135 123
0.323751 2.002033 -0.543269 146 135 123
0.334169 2.005115 -0.544192 146 135 123
0.344274 2.00651 -0.544708 146 135 123
0.353452 2.003614 -0.544187 146 135 123
0.36216 1.998673 -0.543171 145 135 123
0.369224 1.986843 -0.54049 146 135 124
0.377901 1.98205 -0.539506 145 135 123
0.385639 1.973499 -0.537612 145 135 123
0.394053 1.967839 -0.536414 144 134 122
0.403045 1.964507 -0.535778 144 134 122
0.411565 1.959356 -0.5347 145 136 121
0.419533 1.952187 -0.533132 144 135 120
