ply
format ascii 1.0
comment ---
element vertex 1229
property float x
property float y
property float z
property uchar red
property uchar green
property uchar blue
element face 0
property list uchar uint vertex_indices
end_header
-0.044468 1.903143 0.145047 167 159 148
-0.036259 1.929267 0.146582 167 159 148
-0.027586 1.938632 0.14678 167 159 148
-0.018835 1.948888 0.147049 167 159 148
-0.009966 1.953188 0.14685 167 159 148
-0.001056 1.964188 0.147181 166 158 147
0.007962 1.97665 0.147626 166 158 147
0.017009 1.980083 0.147368 166 158 147
0.026156 1.988341 0.147489 165 157 146
0.035361 1.995556 0.147531 165 157 146
0.044662 2.004038 0.147674 166 158 147
0.054079 2.013823 0.147919 165 157 146
0.063662 2.025884 0.14834 166 158 147
0.073111 2.031281 0.148253 165 157 146
0.08273 2.039497 0.148384 165 157 146
0.092471 2.048672 0.148591 165 157 146
0.102141 2.054705 0.148563 165 157 146
0.111904 2.061335 0.148584 164 156 145
0.121699 2.06742 0.148569 164 156 145
0.131402 2.07115 0.14838 164 156 145
0.141045 2.073424 0.148089 164 156 145
0.150826 2.077221 0.147918 163 156 144
0.160815 2.083132 0.147909 163 157 145
0.170848 2.088848 0.147891 165 157 146
0.180871 2.093763 0.147819 164 156 145
0.190841 2.097532 0.147669 164 156 145
0.200464 2.097277 0.147229 166 158 146
0.210189 2.097969 0.146867 138 131 116
0.219706 2.096554 0.146359 131 123 107
0.229282 2.095708 0.145901 131 122 105
0.238537 2.092055 0.145248 129 120 103
0.247821 2.088837 0.144636 128 119 102
0.257035 2.085219 0.144006 128 119 102
0.26578 2.078136 0.143135 128 119 102
0.274722 2.072925 0.142411 128 119 102
0.283463 2.066524 0.141612 128 119 102
0.292123 2.059881 0.140807 127 118 101
0.300885 2.054254 0.140087 127 118 101
0.30984 2.050129 0.139484 127 118 101
0.318456 2.044007 0.138751 127 118 101
0.32698 2.037571 0.138007 126 117 100
0.335751 2.032874 0.137398 126 117 100
0.344522 2.028335 0.136811 127 118 101
0.352331 2.018483 0.135861 126 117 101
0.360923 2.013361 0.135257 126 117 100
0.370096 2.01152 0.134896 126 117 101
0.379037 2.00845 0.134459 125 116 100
0.386462 1.997667 0.133493 126 117 100
0.394654 1.991119 0.132837 125 116 99
0.402843 1.98475 0.132205 125 116 99
0.410433 1.975707 0.131399 124 116 101
0.418751 1.970348 0.130864 125 117 101
0.427004 1.964817 0.130329 124 116 101
0.434942 1.958006 0.129716 124 115 100
0.44325 1.952977 0.129241 124 115 100
0.451206 1.946541 0.12868 124 115 100
0.459264 1.940676 0.128172 124 115 100
0.467402 1.935257 0.127706 123 114 99
0.474543 1.925929 0.126982 122 114 99
0.481933 1.917824 0.126355 123 115 99
0.488858 1.908114 0.12563 122 114 99
0.496405 1.901008 0.125098 122 115 99
0.503069 1.890758 0.124359 122 113 98
0.511493 1.88719 0.124096 121 112 97
0.518625 1.878997 0.123524 122 113 98
0.528386 1.880234 0.123618 121 113 98
0.533388 1.864841 0.12257 120 113 97
0.540595 1.857357 0.122081 120 112 96
0.547733 1.849781 0.121597 119 112 96
0.555927 1.845813 0.121373 119 112 96
0.56353 1.83995 0.121028 119 111 96
0.567316 1.822035 0.119854 119 111 96
0.57396 1.813525 0.119343 119 111 95
0.581735 1.808658 0.119093 118 111 95
0.587953 1.799124 0.118526 118 110 95
0.594958 1.79213 0.118142 118 110 94
0.603178 1.78882 0.118022 117 110 94
0.609866 1.781086 0.117598 117 110 94
0.613998 1.766216 0.116679 116 109 93
0.621019 1.759807 0.116354 116 109 93
0.625827 1.747392 0.11561 116 109 93
0.635916 1.749643 0.115894 116 109 93
0.642079 1.741223 0.11543 115 108 92
0.647858 1.731969 0.114905 115 108 92
0.654792 1.725933 0.114602 116 109 93
0.661821 1.720262 0.114319 114 107 91
0.665446 1.706079 0.11343 115 108 92
0.673192 1.702562 0.113283 115 108 92
0.680673 1.698472 0.113085 114 107 91
0.687512 1.692917 0.112772 115 108 92
0.694203 1.687155 0.112429 114 107 91
0.700164 1.679824 0.111959 113 106 90
0.708483 1.678233 0.111875 115 106 91
0.712621 1.667041 0.111092 114 107 91
0.718355 1.659825 0.110568 112 105 89
0.723537 1.6516 0.109947 113 106 90
0.731346 1.649506 0.109732 113 106 90
0.738746 1.646646 0.109435 112 105 89
0.743673 1.638558 0.108738 112 105 89
0.749835 1.633423 0.108217 112 106 90
0.755324 1.627087 0.107578 111 105 89
0.759697 1.618666 0.106758 112 105 89
0.769351 1.621578 0.106696 112 105 89
0.777865 1.622224 0.106436 112 105 89
0.779979 1.609942 0.105235 110 103 87
0.784038 1.602002 0.1043 112 105 89
0.789359 1.596916 0.103525 111 104 88
0.79736 1.597415 0.103095 111 104 88
0.805799 1.598943 0.102692 112 105 88
0.806818 1.586194 0.101274 112 105 87
0.813457 1.584695 0.100585 111 104 86
0.820077 1.583373 0.099867 111 104 86
0.826239 1.581397 0.099066 112 105 88
0.831088 1.577179 0.098076 111 104 88
0.836368 1.574026 0.097122 109 102 86
-0.641786 1.144571 0.138936 160 154 142
-0.641994 1.154082 0.140117 161 155 143
-0.638638 1.15748 0.140478 161 155 143
-0.636089 1.162529 0.14101 160 154 142
-0.630757 1.162713 0.140881 161 155 143
-0.626304 1.164652 0.140937 160 154 142
-0.622698 1.168332 0.141174 160 154 142
-0.621566 1.176852 0.141984 161 155 143
-0.61801 1.181066 0.142204 160 154 142
-0.611341 1.179532 0.141655 161 155 143
-0.607981 1.184479 0.141885 161 155 143
-0.60306 1.186597 0.141717 161 155 143
-0.599605 1.191759 0.141891 161 155 143
-0.597992 1.200802 0.14251 161 155 143
-0.595797 1.208967 0.142975 162 156 144
-0.591788 1.213713 0.142973 161 155 143
-0.586249 1.215505 0.142569 161 155 143
-0.581568 1.219202 0.142366 162 156 144
-0.576844 1.222965 0.142137 162 156 144
-0.573782 1.230416 0.142325 162 156 144
-0.568629 1.233597 0.141962 162 156 144
-0.563083 1.236048 0.141482 163 157 145
-0.559413 1.242728 0.141486 162 156 144
-0.554905 1.247736 0.141262 162 156 144
-0.550469 1.253049 0.14105 163 157 145
-0.545029 1.256216 0.140563 163 157 145
-0.543635 1.268839 0.141167 162 156 144
-0.538465 1.272925 0.140748 163 157 145
-0.533925 1.278606 0.140499 163 157 145
-0.529263 1.284122 0.140216 164 158 146
-0.524172 1.288716 0.139815 163 157 145
-0.519243 1.2938 0.13946 164 158 146
-0.514398 1.299196 0.139131 165 159 147
-0.509367 1.304223 0.138753 165 159 147
-0.504549 1.309891 0.13844 165 159 147
-0.499322 1.314593 0.138014 165 159 147
-0.493656 1.318207 0.137467 165 159 147
-0.488433 1.323054 0.137053 166 160 148
-0.484784 1.332267 0.137112 165 159 147
-0.479922 1.338325 0.136825 165 159 147
-0.475537 1.345828 0.136692 166 160 148
-0.468963 1.347233 0.135908 166 160 148
-0.464623 1.355075 0.135812 167 161 149
-0.45967 1.361272 0.135541 166 160 148
-0.454736 1.367635 0.13529 166 160 148
-0.449555 1.373365 0.134975 167 161 149
-0.44515 1.381585 0.13492 168 160 149
-0.439542 1.386209 0.134498 168 160 149
-0.433906 1.39081 0.134078 168 161 149
-0.428851 1.397353 0.133861 167 161 149
-0.424249 1.405518 0.13381 167 161 149
-0.41834 1.409491 0.133342 167 161 149
-0.412714 1.414478 0.132983 168 162 150
-0.406978 1.419163 0.132599 168 162 150
-0.401937 1.426375 0.13247 168 162 150
-0.397702 1.436653 0.132642 168 162 150
-0.392258 1.442794 0.132415 168 162 150
-0.38632 1.447225 0.132028 168 162 150
-0.380696 1.45293 0.13177 168 162 150
-0.37528 1.459563 0.131605 168 162 150
-0.370569 1.469149 0.131724 168 162 150
-0.364567 1.473827 0.131384 169 163 151
-0.358619 1.47883 0.13108 169 163 151
-0.353056 1.485559 0.130943 169 163 151
-0.347281 1.491574 0.130744 169 163 151
-0.342071 1.500223 0.130792 169 163 151
-0.336117 1.505841 0.130566 169 163 151
-0.32999 1.510831 0.130288 170 163 152
-0.323957 1.516401 0.130068 170 164 152
-0.318027 1.522631 0.129912 170 163 152
-0.312307 1.530091 0.129871 170 163 152
-0.306457 1.53718 0.1298 170 163 152
-0.300467 1.543817 0.129693 170 163 152
-0.294471 1.550668 0.129609 170 163 152
-0.288227 1.556454 0.129434 170 163 152
-0.282609 1.565929 0.129586 170 163 152
-0.277187 1.576937 0.129872 170 163 152
-0.270916 1.583526 0.129775 171 163 152
-0.264302 1.588358 0.129532 171 163 152
-0.258314 1.597246 0.12964 171 163 152
-0.252657 1.608698 0.129968 171 163 152
-0.246701 1.618821 0.130182 171 163 152
-0.240253 1.626186 0.130164 170 163 152
-0.233624 1.632687 0.130076 171 163 152
-0.227407 1.642527 0.13027 170 162 151
-0.221473 1.655091 0.130691 170 162 151
-0.215093 1.665042 0.130894 170 162 151
-0.208178 1.671361 0.130798 170 162 151
-0.201141 1.67708 0.130655 170 162 151
-0.195057 1.691462 0.131224 170 162 151
-0.188686 1.704378 0.13167 170 162 151
-0.181872 1.714173 0.131861 170 162 151
-0.17468 1.721061 0.131819 170 162 151
-0.168118 1.735052 0.132348 170 162 151
-0.16154 1.750198 0.132968 169 162 151
-0.153984 1.755696 0.132816 169 161 150
-0.146529 1.762946 0.132805 169 161 150
-0.139477 1.776138 0.133266 169 161 150
-0.132142 1.787056 0.133546 169 161 150
-0.125169 1.804624 0.134346 169 161 150
-0.117092 1.807474 0.133993 168 160 149
-0.109394 1.81703 0.134166 168 160 149
-0.101791 1.82983 0.13459 168 160 149
-0.094703 1.855079 0.135971 168 160 149
-0.086755 1.866579 0.136288 167 159 148
-0.07855 1.874357 0.13632 168 160 149
-0.070558 1.889775 0.136935 167 159 148
-0.062105 1.895206 0.13679 167 159 148
-0.053403 1.893281 0.136093 168 160 149
-0.044946 1.901182 0.136141 167 159 148
-0.036876 1.934107 0.138067 167 159 148
-0.028123 1.939164 0.137899 167 159 148
-0.019336 1.94554 0.137833 167 159 148
-0.010504 1.954604 0.137968 167 159 148
-0.001589 1.975444 0.138974 166 158 147
0.007411 1.973329 0.138287 166 158 147
0.016463 1.978886 0.138169 166 158 147
0.025598 1.986703 0.138219 166 158 147
0.034847 1.996813 0.138438 166 158 147
0.044205 2.00758 0.138706 165 157 146
0.053578 2.015238 0.13875 165 157 146
0.06299 2.021846 0.138721 165 157 146
0.072571 2.031359 0.138903 165 157 146
0.082129 2.038108 0.13889 165 157 146
0.091753 2.044899 0.138883 164 155 146
0.101392 2.050694 0.138809 164 155 146
0.111116 2.056985 0.138773 164 156 146
0.121048 2.065702 0.138913 164 156 145
0.130754 2.069607 0.138717 164 156 145
0.140457 2.072872 0.138482 163 155 144
0.150364 2.078412 0.138411 164 156 145
0.160288 2.083451 0.13831 162 156 144
0.170401 2.090131 0.138328 162 156 144
0.180522 2.096117 0.138303 162 156 145
0.190413 2.098927 0.138063 165 157 146
0.199971 2.097934 0.137569 166 158 147
0.209467 2.096349 0.137042 141 133 119
0.219072 2.095832 0.136596 133 124 107
0.228756 2.095997 0.136206 130 121 104
0.238117 2.09326 0.135627 130 121 104
0.246997 2.086632 0.134792 130 121 104
0.256071 2.081975 0.134102 128 119 102
0.265125 2.077399 0.133428 128 119 102
0.274241 2.073515 0.132811 129 120 103
0.282992 2.06717 0.132038 127 118 102
0.291638 2.060414 0.13125 128 119 102
0.300323 2.054252 0.130512 127 118 101
0.309156 2.04934 0.129869 127 118 101
0.317593 2.042107 0.129082 127 118 101
0.326516 2.038198 0.128528 126 117 101
0.335427 2.03433 0.127987 126 117 101
0.344157 2.029525 0.127395 126 117 101
0.351577 2.017439 0.126335 126 117 101
0.360191 2.012482 0.125757 126 117 101
0.369665 2.012304 0.125504 126 117 101
0.378012 2.006107 0.124868 125 116 101
0.385854 1.997525 0.124087 126 117 100
0.393741 1.98947 0.123353 126 117 100
0.401839 1.98271 0.122716 125 116 99
0.410034 1.976609 0.122135 125 116 101
0.418094 1.970045 0.121535 125 116 101
0.426614 1.965752 0.121096 125 116 101
0.434896 1.960465 0.120604 124 115 100
0.442793 1.953612 0.120023 124 115 100
0.450097 1.944389 0.119301 124 115 100
0.458767 1.94115 0.118979 123 114 99
0.46575 1.931 0.118221 124 115 100
0.473912 1.925871 0.117802 122 114 98
0.481687 1.919299 0.117301 121 114 98
0.488659 1.909752 0.116621 122 114 99
0.496522 1.903825 0.116186 122 113 98
0.504299 1.897677 0.11575 122 114 98
0.511283 1.888734 0.115145 121 113 97
0.51922 1.883415 0.114786 121 112 97
0.526979 1.877537 0.114402 120 112 96
0.535965 1.875994 0.11431 120 112 96
0.543836 1.870584 0.113979 119 112 96
0.549264 1.85707 0.113136 119 112 96
0.555881 1.847802 0.112578 119 111 95
0.559465 1.828911 0.111408 119 111 95
0.560256 1.801638 0.109705 119 111 95
0.571098 1.806602 0.110094 118 111 95
0.579506 1.803799 0.10999 118 111 95
0.587349 1.799263 0.109782 118 110 94
0.59384 1.790728 0.109323 117 110 94
0.601984 1.787214 0.109195 117 109 94
0.605862 1.771362 0.108273 117 109 93
0.613222 1.765819 0.108024 116 109 93
0.617599 1.751979 0.107239 116 109 93
0.625458 1.748094 0.107103 116 108 92
0.634011 1.746134 0.107096 115 108 92
0.641721 1.741895 0.10694 115 108 92
0.646631 1.730298 0.106302 116 109 93
0.653298 1.723555 0.105979 116 109 93
0.659576 1.71595 0.105594 116 109 93
0.665593 1.70785 0.105172 114 107 91
0.673447 1.704538 0.105055 115 108 92
0.681527 1.70185 0.10497 115 108 92
0.687394 1.693827 0.104524 114 107 91
0.693402 1.686348 0.1041 115 107 92
0.700825 1.682436 0.103895 115 106 91
0.706325 1.674132 0.103384 115 107 92
0.712323 1.667223 0.102945 113 106 90
0.718623 1.66122 0.102544 113 106 90
0.723534 1.652281 0.101927 112 105 89
0.730591 1.648415 0.101618 112 106 90
0.7369 1.643071 0.101184 112 106 90
0.742888 1.637242 0.100689 113 106 90
0.749332 1.632632 0.100244 112 106 90
0.755134 1.626872 0.09969 112 105 89
0.759296 1.617907 0.098893 112 105 89
0.765742 1.614033 0.098394 111 105 89
0.772348 1.610715 0.097894 111 104 88
0.779443 1.608616 0.097435 112 104 89
0.784931 1.603474 0.09674 112 105 89
0.790949 1.599661 0.096093 111 104 88
0.794374 1.590957 0.095093 111 104 88
0.800758 1.588406 0.094448 111 104 87
0.807608 1.58699 0.093835 110 103 85
0.812699 1.582397 0.092982 110 103 85
0.818471 1.579376 0.092189 111 104 86
0.82518 1.578371 0.091483 111 104 87
0.830953 1.575817 0.090641 110 103 87
0.835699 1.571587 0.08966 110 103 86
-0.642167 1.143198 0.1335 160 154 142
-0.640926 1.150165 0.134302 161 155 143
-0.639722 1.157449 0.135104 161 155 143
-0.636191 1.16078 0.13538 160 154 142
-0.631515 1.162215 0.135383 161 155 143
-0.627109 1.164303 0.135426 160 154 142
-0.623366 1.167793 0.135601 161 155 143
-0.620678 1.173451 0.136 161 155 143
-0.618732 1.180746 0.136555 161 155 143
-0.613522 1.182072 0.136341 161 155 143
-0.608965 1.184805 0.136258 161 155 143
-0.604895 1.188657 0.13627 160 154 142
-0.600472 1.192003 0.13618 161 155 143
-0.597222 1.197855 0.136353 161 155 143
-0.594253 1.204495 0.13658 161 155 143
-0.591837 1.212498 0.136929 161 155 143
-0.587401 1.216611 0.136776 161 155 143
-0.581942 1.218768 0.136358 162 156 144
-0.577202 1.222555 0.1361 162 156 144
-0.573136 1.227924 0.135996 162 156 144
-0.569378 1.234133 0.135959 162 156 144
-0.564432 1.237951 0.135616 162 156 144
-0.55946 1.241836 0.135255 162 156 144
-0.554622 1.246144 0.13492 162 156 144
-0.54999 1.25104 0.13463 162 156 144
-0.547149 1.260161 0.134796 162 156 144
-0.54278 1.265982 0.134567 162 156 144
-0.538208 1.271468 0.134284 163 157 145
-0.534079 1.278133 0.134116 163 157 145
-0.529883 1.284795 0.133932 163 157 145
-0.524635 1.289036 0.13347 163 157 145
-0.519971 1.294803 0.133166 164 158 146
-0.51517 1.300339 0.132827 164 158 146
-0.510428 1.306132 0.132509 164 158 146
-0.504503 1.308986 0.131872 164 158 146
-0.498745 1.312299 0.131283 165 159 147
-0.493878 1.318007 0.130945 165 159 147
-0.489876 1.326134 0.130856 165 159 147
-0.484992 1.332027 0.130531 165 159 147
-0.479592 1.336591 0.130069 165 159 147
-0.474073 1.340878 0.12958 166 160 148
-0.469024 1.346557 0.129235 167 161 149
-0.464657 1.354304 0.1291 167 161 149
-0.459947 1.361198 0.128879 167 161 149
-0.454935 1.367319 0.128582 166 160 148
-0.449786 1.373131 0.128257 167 161 149
-0.444287 1.37796 0.12784 168 160 149
-0.439139 1.38396 0.127542 168 160 149
-0.434861 1.392834 0.127525 167 160 149
-0.429806 1.399398 0.127287 167 161 149
-0.42424 1.404409 0.126904 167 161 149
-0.41915 1.411093 0.126686 167 161 149
-0.413075 1.414561 0.126169 167 161 149
-0.407413 1.41949 0.125796 168 162 150
-0.402901 1.428555 0.125814 168 162 150
-0.397471 1.434563 0.125551 168 162 150
-0.392482 1.442308 0.125453 167 161 149
-0.386653 1.447122 0.125091 168 162 150
-0.380685 1.451501 0.124695 168 162 150
-0.375761 1.459992 0.124677 168 162 150
-0.370373 1.466892 0.124519 168 162 150
-0.364486 1.471972 0.124203 168 162 150
-0.3587 1.477581 0.12394 169 162 150
-0.353089 1.484065 0.12376 169 163 151
-0.34732 1.490055 0.12354 169 163 151
-0.34154 1.496165 0.123336 169 163 151
-0.336109 1.504008 0.123287 169 163 151
-0.329807 1.508146 0.122922 170 163 151
-0.32362 1.512917 0.122617 170 163 151
-0.318085 1.520931 0.122594 170 163 152
-0.312159 1.527328 0.122437 170 163 151
-0.306252 1.534045 0.122311 170 163 151
-0.300589 1.542252 0.122314 170 163 151
-0.294619 1.549185 0.122212 170 163 152
-0.288514 1.555668 0.122077 170 163 152
-0.283138 1.566427 0.122298 170 163 152
-0.277406 1.575669 0.122394 170 163 152
-0.271285 1.58308 0.122342 170 163 152
-0.265269 1.591459 0.122371 171 163 152
-0.25895 1.598381 0.122284 171 163 152
-0.253192 1.609203 0.122514 171 163 152
-0.24707 1.61823 0.1226 171 163 152
-0.240554 1.625095 0.122514 169 163 151
-0.234381 1.634723 0.12265 170 163 151
-0.22808 1.643999 0.122759 171 163 152
-0.2218 1.654007 0.122926 170 162 151
-0.215067 1.661172 0.122871 170 162 151
-0.208326 1.668722 0.122848 170 162 151
-0.201499 1.676078 0.122811 170 162 151
-0.195121 1.687834 0.123116 170 162 151
-0.188445 1.697817 0.123283 170 162 151
-0.181218 1.703417 0.123116 169 162 151
-0.175251 1.721852 0.123927 169 162 151
-0.168173 1.730524 0.123993 169 162 151
-0.161041 1.739412 0.124077 169 162 150
-0.154656 1.757668 0.124863 169 161 150
-0.147134 1.76422 0.12477 169 161 150
-0.139838 1.774336 0.124945 169 161 150
-0.132349 1.78303 0.125013 169 161 150
-0.126033 1.809765 0.126411 169 161 150
-0.117812 1.810746 0.12591 168 160 150
-0.10992 1.817297 0.125821 168 160 149
-0.102353 1.830731 0.126234 168 160 149
-0.094037 1.831775 0.125748 168 160 149
-0.087176 1.864448 0.127547 168 160 149
-0.078957 1.871609 0.127502 167 159 148
-0.070779 1.881603 0.127661 168 160 149
-0.062388 1.88777 0.127547 168 160 149
-0.054066 1.898363 0.127749 168 160 149
-0.045496 1.902403 0.127488 167 159 148
-0.037214 1.923795 0.128451 167 159 148
-0.028631 1.937634 0.128879 167 159 148
-0.019843 1.943054 0.128718 167 159 148
-0.011027 1.952992 0.128873 166 158 148
-0.002122 1.96535 0.129196 166 158 147
0.006869 1.971158 0.129067 166 158 147
0.015923 1.978162 0.129023 166 158 147
0.025066 1.986852 0.129097 166 158 147
0.034238 1.992762 0.128982 165 157 147
0.043658 2.007119 0.129444 165 157 146
0.053013 2.014236 0.129415 165 157 146
0.062345 2.018503 0.129196 165 157 146
0.072024 2.031152 0.129544 164 156 145
0.081517 2.036366 0.129395 165 157 146
0.091127 2.043043 0.129347 165 157 146
0.100787 2.049438 0.129284 164 156 145
0.11053 2.056184 0.129247 164 155 146
0.120476 2.065231 0.129366 164 156 145
0.130135 2.068442 0.129103 164 156 145
0.13993 2.073125 0.128942 164 156 145
0.149778 2.077868 0.12879 164 156 145
0.15975 2.083564 0.128705 163 157 145
0.17002 2.092152 0.128812 162 156 144
0.180273 2.099559 0.128845 162 156 144
0.190051 2.100979 0.128498 165 157 146
0.199498 2.09874 0.127923 166 158 147
0.208984 2.097015 0.127389 141 133 120
0.218388 2.094575 0.126819 132 123 107
0.228122 2.095258 0.126455 131 122 105
0.237544 2.093077 0.125918 131 122 105
0.246568 2.087657 0.125185 130 121 104
0.255401 2.081022 0.124385 129 120 103
0.26464 2.077919 0.123819 128 119 102
0.273586 2.07275 0.123132 128 119 102
0.282629 2.068538 0.122516 127 118 101
0.291329 2.062116 0.121772 127 118 101
0.299931 2.055338 0.121017 127 118 101
0.308589 2.049253 0.120317 126 118 101
0.317194 2.043094 0.119622 126 117 101
0.3259 2.037827 0.118995 126 117 101
0.334733 2.03351 0.118436 126 117 101
0.343073 2.026465 0.117721 126 117 101
0.351387 2.019541 0.117025 125 117 101
0.359883 2.013887 0.116418 125 116 101
0.368439 2.008739 0.115854 125 116 101
0.377353 2.005629 0.115425 125 116 100
0.385529 1.998775 0.11478 125 116 100
0.39308 1.989021 0.113972 124 115 98
0.400689 1.979891 0.113213 125 116 100
0.409355 1.97612 0.112791 125 116 101
0.417754 1.971162 0.112309 124 115 100
0.426011 1.96566 0.111807 124 115 100
0.434475 1.961205 0.111379 125 116 101
0.443239 1.958138 0.111047 125 116 101
0.451175 1.951539 0.110514 124 115 100
0.458069 1.940723 0.109741 123 114 99
0.46597 1.934363 0.109248 124 115 100
0.472452 1.922419 0.108433 123 114 99
0.481452 1.920768 0.108247 122 114 98
0.488666 1.912137 0.107655 122 115 99
0.496494 1.90605 0.107227 121 113 97
0.504404 1.900371 0.106836 122 113 98
0.511548 1.891975 0.106294 121 113 97
0.518582 1.883363 0.105752 121 114 98
0.526564 1.878286 0.105432 119 112 96
0.534515 1.873157 0.105121 119 112 95
0.543401 1.871271 0.105014 119 112 96
0.55 1.861666 0.104458 119 111 95
0.557528 1.855325 0.104107 118 111 95
0.563803 1.845021 0.10353 118 111 95
0.568251 1.829116 0.102628 118 111 95
0.573824 1.817136 0.101969 118 111 95
0.578488 1.802622 0.101168 118 110 95
0.586213 1.797751 0.100951 117 110 94
0.592532 1.788721 0.100493 117 110 94
0.600964 1.786082 0.100424 117 109 93
0.606784 1.775858 0.099907 116 109 93
0.611802 1.763558 0.09927 116 109 93
0.618575 1.756464 0.09895 116 108 92
0.622067 1.740411 0.098094 115 108 92
0.633558 1.746564 0.098576 115 108 92
0.639703 1.738091 0.098179 115 108 92
0.645517 1.728912 0.097739 115 108 92
0.652348 1.722586 0.097469 115 108 92
0.658506 1.71465 0.097098 115 108 92
0.665786 1.709736 0.096905 115 108 92
0.674815 1.709303 0.096978 115 108 92
0.681319 1.702613 0.096663 115 107 91
0.6857 1.690899 0.096032 116 107 92
0.692228 1.684654 0.095722 115 106 91
0.698827 1.678743 0.095418 115 106 91
0.70478 1.671482 0.095016 115 106 91
0.711252 1.665634 0.094681 114 107 91
0.716772 1.65779 0.094205 113 106 90
0.724414 1.654985 0.094014 111 105 89
0.731969 1.652116 0.093795 112 106 90
0.737032 1.643889 0.093223 112 106 90
0.743091 1.638115 0.092773 113 106 90
0.750072 1.634559 0.092427 113 106 90
0.755858 1.628646 0.091908 112 105 89
0.75921 1.617852 0.09106 112 105 89
0.769252 1.621377 0.091043 111 104 88
0.771782 1.609468 0.09006 111 104 87
0.77788 1.605242 0.089503 112 105 88
0.785783 1.604908 0.089141 111 104 88
0.791655 1.600684 0.088508 112 105 88
0.795634 1.592963 0.087629 111 104 86
0.799487 1.585322 0.086718 110 103 85
0.807128 1.585368 0.086221 111 104 86
0.812243 1.580734 0.08541 112 105 87
0.817861 1.577333 0.084633 111 104 86
0.823857 1.574897 0.083873 110 103 85
0.830313 1.573558 0.083138 109 102 84
0.833137 1.565681 0.081994 110 103 84
-0.644082 1.144557 0.128376 160 154 142
-0.640929 1.148193 0.128729 161 155 143
-0.638251 1.152874 0.129168 160 154 142
-0.635454 1.157554 0.129568 160 154 142
-0.634689 1.166146 0.13039 159 153 141
-0.628923 1.165839 0.130119 160 154 142
-0.625455 1.169918 0.130325 161 155 143
-0.622882 1.175876 0.130711 160 154 142
-0.617697 1.17714 0.130504 161 155 143
-0.614406 1.182163 0.130697 160 154 142
-0.610169 1.185583 0.130661 159 153 141
-0.606329 1.189959 0.130697 160 154 142
-0.602118 1.193804 0.13063 161 155 143
-0.597266 1.19656 0.1304 161 155 143
-0.592975 1.200597 0.13028 160 154 142
-0.590504 1.208506 0.130565 161 155 143
-0.587566 1.215712 0.130731 162 156 144
-0.583366 1.220537 0.130591 162 156 144
-0.578655 1.224464 0.130318 162 156 144
-0.57466 1.230063 0.130201 161 155 143
-0.570141 1.234716 0.129949 161 155 143
-0.565517 1.23929 0.129661 162 156 144
-0.560217 1.242519 0.129201 162 156 144
-0.554718 1.245408 0.128683 161 155 143
-0.551249 1.25296 0.128652 163 157 145
-0.546937 1.258782 0.128412 163 157 145
-0.542376 1.264172 0.128108 163 157 145
-0.537809 1.269679 0.127799 163 157 145
-0.533719 1.276443 0.12761 163 157 145
-0.529335 1.282653 0.127347 163 157 145
-0.524709 1.288404 0.127026 164 158 146
-0.520433 1.295139 0.126796 164 158 146
-0.51626 1.30227 0.126597 163 157 145
-0.510434 1.305349 0.125977 164 158 146
-0.504883 1.309168 0.12543 164 158 146
-0.499185 1.312648 0.124847 164 158 146
-0.494646 1.319235 0.124575 165 159 147
-0.490022 1.325711 0.124289 165 159 147
-0.485258 1.331925 0.123975 165 159 147
-0.479929 1.336684 0.123517 165 159 147
-0.474506 1.341241 0.123042 166 160 148
-0.469745 1.347742 0.122758 167 160 148
-0.464824 1.353895 0.12244 166 160 148
-0.460302 1.361328 0.122247 166 160 148
-0.455261 1.367357 0.121921 166 160 148
-0.449642 1.371732 0.121444 167 159 148
-0.444286 1.376972 0.121052 167 159 148
-0.438908 1.382221 0.120666 168 160 149
-0.43412 1.38943 0.120465 168 161 149
-0.429395 1.396992 0.120298 167 161 149
-0.424145 1.402987 0.119992 167 160 149
-0.419056 1.409633 0.11975 167 161 149
-0.413456 1.414679 0.119368 168 162 150
-0.407761 1.419479 0.118971 168 162 150
-0.402393 1.425511 0.118688 167 161 149
-0.397588 1.43369 0.118599 167 161 149
-0.392508 1.441069 0.118443 167 161 149
-0.387017 1.447099 0.118173 168 162 150
-0.381704 1.453946 0.117979 169 163 151
-0.376502 1.461385 0.117839 168 162 150
-0.3705 1.46588 0.117453 168 162 150
-0.364526 1.470574 0.117091 168 162 150
-0.358745 1.476158 0.116809 168 162 150
-0.353065 1.482303 0.11658 169 162 150
-0.347466 1.488966 0.116398 169 162 151
-0.341992 1.496365 0.116281 169 163 151
-0.335947 1.50146 0.115978 169 163 151
-0.32989 1.506637 0.115688 169 163 151
-0.323903 1.512289 0.115442 170 163 151
-0.318111 1.519045 0.115289 170 163 151
-0.312134 1.525133 0.115086 170 163 151
-0.305791 1.529603 0.114759 170 163 151
-0.299555 1.53476 0.114491 170 163 151
-0.294132 1.544348 0.114577 170 163 151
-0.289296 1.557498 0.114942 170 163 151
-0.283876 1.568041 0.115103 170 163 151
-0.277781 1.575256 0.115005 170 163 152
-0.271786 1.583366 0.114979 170 163 152
-0.266009 1.593161 0.115084 170 164 152
-0.259637 1.599794 0.114949 171 163 152
-0.253315 1.607057 0.114865 171 163 152
-0.247051 1.615071 0.114839 171 163 152
-0.2408 1.623603 0.114854 171 163 152
-0.234702 1.633678 0.114985 171 163 152
-0.228619 1.644474 0.115169 171 163 152
-0.221974 1.651758 0.115094 170 162 151
-0.215183 1.658375 0.114972 170 162 151
-0.208541 1.666603 0.114969 170 162 151
-0.201719 1.673896 0.1149 169 162 151
-0.19444 1.677765 0.114585 169 162 151
-0.188346 1.692537 0.115059 169 162 151
-0.181295 1.699546 0.114973 169 162 151
-0.174404 1.708696 0.115042 169 162 151
-0.168346 1.72721 0.115775 169 162 150
-0.161324 1.737096 0.115893 169 161 150
-0.154194 1.746726 0.115993 169 161 150
-0.14695 1.755976 0.116066 169 161 150
-0.139415 1.762555 0.115953 169 161 150
-0.132654 1.780326 0.116618 169 161 150
-0.125661 1.797035 0.117204 169 161 150
-0.118473 1.813066 0.117739 168 160 149
-0.110881 1.824756 0.117973 168 160 149
-0.103312 1.838715 0.11836 168 160 149
-0.095566 1.851668 0.118676 168 160 149
-0.087615 1.86269 0.11886 168 160 149
-0.079466 1.87133 0.118883 168 160 149
-0.071217 1.879351 0.118866 168 160 149
-0.062883 1.886927 0.118819 168 160 149
-0.054487 1.894701 0.118788 168 160 149
-0.046274 1.913273 0.119469 167 159 148
-0.037883 1.931274 0.120108 167 159 148
-0.028973 1.92449 0.119122 167 159 148
-0.020371 1.942964 0.11979 167 159 148
-0.011515 1.944757 0.119372 166 158 148
-0.002652 1.963269 0.120037 166 158 147
0.00632 1.966918 0.119743 166 158 147
0.015378 1.976624 0.119841 166 158 147
0.02452 1.985859 0.119909 166 158 147
0.033675 1.991071 0.119722 165 157 147
0.042883 1.996429 0.119548 165 157 146
0.052421 2.01211 0.120027 165 157 146
0.061853 2.019847 0.120006 165 157 146
0.071267 2.025063 0.119829 165 157 146
0.080914 2.034756 0.119934 165 156 147
0.090515 2.041394 0.119851 164 155 146
0.100275 2.049953 0.11989 164 155 146
0.109907 2.054646 0.119693 164 155 146
0.119688 2.061042 0.119605 164 155 146
0.129644 2.069209 0.119628 164 156 145
0.139434 2.073765 0.119434 164 156 145
0.149301 2.078747 0.119271 162 156 144
0.159261 2.084243 0.119143 162 156 144
0.169287 2.089857 0.119027 162 156 144
0.179549 2.097512 0.119038 162 156 144
0.189335 2.099112 0.118691 163 157 145
0.198994 2.099163 0.118258 166 159 148
0.208556 2.098166 0.11777 142 134 121
0.217999 2.09605 0.117225 132 123 107
0.227432 2.093935 0.116687 131 122 105
0.236698 2.090456 0.116079 131 122 105
0.246001 2.087464 0.115507 129 120 103
0.255138 2.083277 0.114876 129 120 103
0.263842 2.075939 0.114071 128 119 102
0.272947 2.072037 0.113475 128 119 102
0.281959 2.067627 0.112861 127 118 101
0.290836 2.062475 0.112213 127 118 101
0.299451 2.055772 0.111487 126 118 101
0.308317 2.051044 0.110885 126 117 101
0.316841 2.044324 0.110179 126 117 101
0.325407 2.038152 0.109516 126 117 101
0.333971 2.032228 0.108878 126 117 101
0.341335 2.019508 0.107866 125 117 101
0.350088 2.015279 0.107348 125 116 101
0.358993 2.012009 0.106894 125 116 101
0.367996 2.009339 0.106484 125 116 101
0.376635 2.004777 0.105979 125 116 100
0.385329 2.000618 0.105508 125 116 100
0.391939 1.986108 0.104469 125 116 101
0.40047 1.981565 0.104001 125 116 101
0.408939 1.976832 0.103533 125 116 101
0.417341 1.971881 0.103064 124 115 100
0.425428 1.965603 0.102534 125 116 101
0.43372 1.960398 0.102075 125 116 101
0.442106 1.955709 0.101656 124 115 100
0.449646 1.947478 0.101054 123 114 99
0.457732 1.941758 0.100603 122 113 98
0.465694 1.935641 0.100142 123 114 99
0.473189 1.927766 0.099596 122 114 98
0.480415 1.919014 0.099015 122 114 99
0.487585 1.910261 0.098445 121 114 98
0.495798 1.905687 0.098118 121 114 98
0.503655 1.899831 0.097732 121 114 98
0.510341 1.889777 0.097128 120 113 97
0.518232 1.8843 0.096786 120 113 97
0.526208 1.879196 0.096477 119 112 96
0.534038 1.873645 0.096155 119 111 95
0.541138 1.865674 0.095711 119 111 95
0.550249 1.864597 0.095657 118 111 95
0.556933 1.855432 0.095169 118 111 95
0.564076 1.847942 0.094784 118 111 95
0.564689 1.819754 0.093274 118 111 95
0.572192 1.813981 0.093002 118 111 95
0.586711 1.829934 0.093933 118 110 94
0.591723 1.816389 0.093253 117 110 94
0.59565 1.799911 0.092419 117 109 94
0.60216 1.791443 0.092032 116 109 93
0.608648 1.783064 0.091657 116 109 93
0.61612 1.777648 0.09145 116 108 93
0.61684 1.753306 0.090204 116 108 92
0.620359 1.737349 0.089423 115 108 92
0.632129 1.744305 0.089911 115 108 92
0.639703 1.739689 0.089762 115 108 92
0.645479 1.730361 0.089352 115 108 92
0.651964 1.723083 0.089054 115 108 92
0.658697 1.71659 0.088798 115 108 92
0.666265 1.712348 0.088663 115 108 92
0.674309 1.709375 0.088593 114 107 91
0.676279 1.691415 0.087682 115 107 92
0.683471 1.68666 0.087496 115 106 91
0.690304 1.681153 0.087258 116 107 92
0.697101 1.675703 0.087011 115 106 91
0.703976 1.670582 0.086767 115 106 91
0.710451 1.664685 0.086463 114 107 91
0.71734 1.659913 0.086204 113 106 90
0.725151 1.657392 0.086049 112 106 90
0.731151 1.650939 0.085652 112 105 89
0.737052 1.644493 0.08523 112 105 89
0.743605 1.639699 0.084875 112 105 89
0.750706 1.636294 0.084567 113 106 90
0.756966 1.631277 0.08414 112 105 89
0.762365 1.624672 0.083592 112 105 89
0.764672 1.611891 0.08267 112 105 89
0.774469 1.614974 0.082591 113 106 89
0.777817 1.604974 0.081754 112 105 89
0.785134 1.603355 0.081342 111 104 88
0.791725 1.600479 0.080823 112 105 87
0.794295 1.589867 0.079845 110 103 87
0.800971 1.58769 0.079288 111 104 88
0.808558 1.587504 0.078799 111 104 88
0.813764 1.582925 0.078034 110 103 86
0.81506 1.571161 0.076851 111 104 87
0.825533 1.577144 0.076571 111 104 87
0.82996 1.571886 0.075659 109 102 86
0.830462 1.559619 0.074348 109 102 86
-0.642448 1.139702 0.122507 161 154 143
-0.641569 1.147383 0.123284 160 154 142
-0.640461 1.154919 0.124006 160 154 142
-0.639307 1.162637 0.124708 160 154 142
-0.634408 1.163815 0.124626 160 154 142
-0.629722 1.165538 0.124567 159 153 141
-0.627024 1.171104 0.124902 160 154 142
-0.622945 1.174322 0.12493 160 154 142
-0.618476 1.176993 0.124857 161 155 143
-0.614474 1.180727 0.124862 160 154 142
-0.611417 1.186472 0.125052 161 155 143
-0.607014 1.189829 0.124934 161 155 143
-0.603083 1.19429 0.1249 160 154 142
-0.597906 1.196474 0.124577 161 155 143
-0.593758 1.200862 0.124461 160 154 142
-0.590318 1.206869 0.124485 161 155 143
-0.586622 1.212564 0.124439 161 155 143
-0.583323 1.219279 0.124469 162 156 144
-0.580837 1.227918 0.124672 161 155 143
-0.575193 1.230109 0.124152 161 155 143
-0.570184 1.233764 0.123762 162 156 144
-0.566317 1.240021 0.123623 162 156 144
-0.559461 1.239886 0.122787 162 156 144
-0.557028 1.249609 0.122964 162 156 144
-0.552585 1.255056 0.122671 163 157 145
-0.549693 1.264179 0.122738 162 156 144
-0.541664 1.261656 0.121593 163 157 145
-0.537471 1.268036 0.121348 163 157 145
-0.533168 1.274297 0.121076 163 157 145
-0.529049 1.281137 0.120849 163 157 145
-0.524537 1.287167 0.12053 163 157 145
-0.520255 1.293885 0.12027 163 157 145
-0.515327 1.299122 0.119857 164 158 146
-0.510794 1.305452 0.119544 164 158 146
-0.505405 1.309698 0.119025 164 158 146
-0.500306 1.31476 0.118583 164 158 146
-0.495086 1.319574 0.118116 164 158 146
-0.49024 1.325463 0.11775 164 158 146
-0.484106 1.32794 0.117064 165 159 147
-0.479962 1.335914 0.116894 166 159 147
-0.47499 1.341724 0.116521 166 158 147
-0.469816 1.347049 0.116106 166 159 148
-0.464929 1.353283 0.115776 165 159 147
-0.460124 1.359868 0.11548 166 160 148
-0.454433 1.363925 0.114959 166 160 148
-0.450342 1.372869 0.114879 167 160 148
-0.445093 1.378444 0.114501 167 159 148
-0.439498 1.383027 0.114041 168 160 149
-0.434524 1.389643 0.113763 167 160 149
-0.429551 1.396391 0.1135 167 161 149
-0.424549 1.403179 0.113244 167 161 149
-0.419047 1.408432 0.112861 167 161 149
-0.413877 1.414905 0.112587 167 161 149
-0.408249 1.419925 0.112195 167 161 149
-0.403857 1.429385 0.11218 167 161 149
-0.398154 1.434395 0.111797 167 161 149
-0.392675 1.44031 0.111495 168 162 150
-0.387681 1.448162 0.111356 167 161 149
-0.382614 1.455936 0.111213 168 162 150
-0.376951 1.46162 0.110906 168 162 150
-0.371214 1.467144 0.11059 168 162 150
-0.364851 1.470285 0.110091 168 162 150
-0.358695 1.474314 0.109669 168 162 150
-0.353036 1.480492 0.109424 168 162 150
-0.348131 1.490053 0.109447 169 162 151
-0.342827 1.498201 0.109361 169 162 151
-0.336892 1.503805 0.109082 169 163 151
-0.330083 1.505601 0.108515 169 163 151
-0.325536 1.517902 0.108758 169 163 151
-0.319084 1.52163 0.108349 170 163 151
-0.31273 1.525927 0.10799 170 163 151
-0.30608 1.528877 0.107536 170 163 151
-0.299659 1.533056 0.107179 170 163 151
-0.294205 1.542419 0.107212 170 163 151
-0.290637 1.562288 0.108017 170 163 151
-0.284089 1.566728 0.107687 170 163 151
-0.278721 1.577995 0.107858 170 163 152
-0.272015 1.582038 0.107507 170 163 152
-0.266051 1.590659 0.107489 170 163 152
-0.25991 1.598619 0.107425 170 163 152
-0.25351 1.605336 0.107274 171 163 152
-0.247211 1.613052 0.107197 171 163 152
-0.241007 1.621822 0.107196 169 163 151
-0.235335 1.634778 0.107488 170 163 152
-0.228955 1.643448 0.107479 170 163 152
-0.222342 1.650929 0.10739 169 163 151
-0.215626 1.658076 0.107279 169 162 151
-0.208754 1.66444 0.107116 169 162 151
-0.201737 1.670025 0.106902 169 162 151
-0.194162 1.671181 0.106392 169 162 151
-0.187619 1.68162 0.106512 169 162 151
-0.182191 1.70333 0.107387 169 162 151
-0.176053 1.719999 0.107918 169 162 151
-0.168478 1.723455 0.107567 169 162 150
-0.16246 1.743938 0.108343 169 161 150
-0.154049 1.739395 0.10747 169 161 150
-0.146124 1.740093 0.106947 169 161 150
-0.140921 1.775236 0.108669 169 161 150
-0.133474 1.784529 0.108702 169 161 150
-0.127072 1.809937 0.109773 169 161 150
-0.118897 1.811687 0.109317 168 160 150
-0.110892 1.816428 0.109058 168 160 149
-0.103851 1.839093 0.109937 168 160 149
-0.09603 1.850574 0.110103 167 159 148
-0.088214 1.864355 0.110412 168 160 149
-0.080065 1.873156 0.110407 167 159 148
-0.071681 1.877785 0.110142 168 160 149
-0.063868 1.900956 0.111028 168 160 149
-0.055088 1.897484 0.110265 167 159 148
-0.046628 1.905993 0.110244 167 159 148
-0.038114 1.915756 0.1103 167 159 148
-0.029303 1.911064 0.109477 167 159 148
-0.020685 1.921483 0.109577 166 159 148
-0.012013 1.939257 0.110119 166 158 148
-0.003168 1.945128 0.109943 166 158 147
0.005749 1.956001 0.110068 166 158 147
0.014788 1.969413 0.110344 166 158 147
0.02401 1.987431 0.11089 166 158 147
0.033113 1.989245 0.110478 165 157 147
0.042365 1.996966 0.110417 165 157 146
0.051964 2.014924 0.110955 165 157 146
0.061392 2.022137 0.110866 165 157 146
0.070832 2.027788 0.110688 164 155 146
0.080415 2.035598 0.110637 165 156 147
0.090027 2.042418 0.110532 164 155 146
0.099612 2.047356 0.110322 164 155 146
0.109251 2.052412 0.110122 164 155 146
0.118984 2.058188 0.109967 163 155 144
0.128945 2.066652 0.109967 163 155 144
0.138931 2.074261 0.109921 163 155 144
0.148734 2.078322 0.10968 162 155 144
0.158699 2.083918 0.109528 162 156 144
0.168804 2.090519 0.109437 162 156 144
0.178621 2.09302 0.109123 162 156 144
0.188627 2.097269 0.108911 162 155 144
0.198402 2.098609 0.108544 165 158 147
0.208233 2.100316 0.108205 143 134 121
0.217412 2.095587 0.107521 132 123 108
0.226596 2.091227 0.106866 130 121 106
0.236021 2.089235 0.106349 131 122 105
0.245444 2.087303 0.105844 129 120 103
0.254622 2.083443 0.105243 128 119 102
0.263578 2.078057 0.10457 128 119 102
0.27249 2.072626 0.103905 127 118 102
0.281479 2.068034 0.103294 127 118 101
0.290093 2.061017 0.102565 126 118 101
0.299015 2.056451 0.101976 126 118 101
0.307805 2.051207 0.101361 126 117 101
0.316066 2.042799 0.100591 126 117 101
0.324521 2.035994 0.099916 126 117 101
0.333196 2.030798 0.099336 125 117 101
0.340948 2.020385 0.098496 125 117 101
0.34924 2.013519 0.097852 125 116 101
0.358257 2.010926 0.09744 125 116 101
0.367293 2.008474 0.097045 125 116 101
0.375994 2.004272 0.096571 125 116 100
0.383981 1.996503 0.095925 125 116 100
0.392558 1.991958 0.095456 125 116 100
0.400151 1.982699 0.094757 125 116 100
0.408474 1.977251 0.094264 125 116 101
0.416862 1.972243 0.093806 125 116 101
0.425136 1.966822 0.093338 124 115 100
0.433218 1.960665 0.092845 124 115 100
0.441401 1.955097 0.092394 124 115 100
0.449264 1.948273 0.09189 124 115 100
0.45694 1.940828 0.091368 123 114 99
0.465077 1.935466 0.090963 123 114 99
0.473052 1.929541 0.090541 122 114 99
0.479156 1.916328 0.089766 121 114 98
0.487236 1.91117 0.089407 120 113 97
0.494796 1.904104 0.088964 121 114 98
0.502321 1.897051 0.088535 121 114 98
0.510269 1.891688 0.088201 121 114 98
0.518361 1.886917 0.087909 120 113 97
0.526418 1.882065 0.087625 120 112 96
0.530836 1.864617 0.086722 118 111 94
0.538621 1.859149 0.086429 118 111 94
0.548255 1.859953 0.086461 118 111 94
0.556871 1.857253 0.086329 118 111 95
0.562308 1.844199 0.08569 118 110 95
0.568748 1.83466 0.085236 118 110 95
0.568115 1.803097 0.083691 118 110 95
0.581474 1.815669 0.084363 118 110 94
0.588954 1.809852 0.084123 117 110 94
0.595312 1.800745 0.083727 117 109 93
0.598473 1.782387 0.082875 116 109 93
0.606559 1.778779 0.082769 116 109 93
0.616433 1.780289 0.082926 116 108 93
0.615376 1.750879 0.081535 115 108 92
0.621077 1.740988 0.081128 115 108 92
0.630567 1.741658 0.081257 115 108 92
0.639308 1.740206 0.081281 115 108 92
0.644902 1.730363 0.080884 115 108 92
0.651786 1.724104 0.080667 115 108 92
0.658492 1.717498 0.080431 115 108 92
0.664107 1.708242 0.080058 114 107 91
0.671062 1.702556 0.079861 114 107 91
0.678023 1.696999 0.079665 115 108 92
0.683213 1.687233 0.079247 114 107 91
0.689666 1.680753 0.078986 114 107 91
0.69709 1.676745 0.07884 115 106 91
0.704911 1.673775 0.078733 115 106 91
0.711009 1.6669 0.078412 113 106 90
0.717468 1.661048 0.078125 113 106 90
0.723771 1.655028 0.07781 112 105 89
0.7301 1.649263 0.077487 113 106 90
0.736258 1.643322 0.077131 113 106 90
0.743446 1.639845 0.076876 113 106 90
0.749996 1.63516 0.076531 112 105 89
0.755308 1.62804 0.076034 113 106 90
0.759502 1.618836 0.075402 112 105 89
0.765842 1.614432 0.07498 113 106 90
0.77143 1.608706 0.074458 112 105 88
0.77884 1.606964 0.074102 112 105 89
0.784371 1.601614 0.073529 111 104 88
0.790973 1.598674 0.073039 111 104 88
0.796196 1.59323 0.072388 112 105 89
0.801106 1.587455 0.071683 111 104 88
0.808716 1.587214 0.071213 112 105 89
0.810846 1.57662 0.070199 111 104 88
0.819938 1.579679 0.069811 111 104 88
0.825211 1.575658 0.069041 111 104 88
0.831133 1.573119 0.068305 111 104 88
0.841293 1.578686 0.067915 110 103 87
-0.64597 1.143935 0.117654 160 154 143
-0.643498 1.148884 0.118077 159 153 141
-0.641923 1.155652 0.118659 160 154 142
-0.638973 1.160197 0.118958 160 154 142
-0.635322 1.163686 0.119103 161 155 143
-0.631249 1.166598 0.119145 160 154 142
-0.625159 1.165966 0.118764 160 154 142
-0.622485 1.171824 0.119044 160 154 142
-0.617952 1.174419 0.118931 160 154 142
-0.615015 1.18022 0.119123 160 154 142
-0.611615 1.185366 0.119203 160 154 142
-0.607626 1.189584 0.119145 160 154 142
-0.603049 1.192842 0.118946 160 154 142
-0.599545 1.198394 0.118953 160 154 142
-0.594879 1.201827 0.118699 160 154 142
-0.59079 1.206589 0.118551 161 155 143
-0.586116 1.210336 0.118263 160 154 142
-0.580701 1.212701 0.117802 161 155 143
-0.579684 1.224391 0.118269 160 154 142
-0.575178 1.229012 0.117978 161 155 143
-0.569569 1.231414 0.117437 162 156 144
-0.5646 1.235297 0.117023 161 155 143
-0.560993 1.24229 0.116899 162 156 144
-0.557334 1.249351 0.116758 162 156 144
-0.553 1.255078 0.116463 162 156 144
-0.547127 1.257436 0.115821 163 157 145
-0.542688 1.263155 0.115494 162 156 144
-0.53641 1.264699 0.11475 162 156 144
-0.534108 1.275684 0.114904 162 156 144
-0.529033 1.280266 0.11443 162 156 144
-0.524113 1.285308 0.113993 163 157 145
-0.52054 1.293766 0.113868 163 157 145
-0.514797 1.296974 0.113245 164 158 146
-0.509702 1.30186 0.112776 164 158 146
-0.505434 1.308947 0.112505 163 157 145
-0.500543 1.314543 0.112094 164 158 146
-0.495439 1.319666 0.111639 164 158 146
-0.490169 1.324418 0.111151 164 158 146
-0.485506 1.330888 0.110816 165 159 147
-0.479357 1.33336 0.110129 165 158 147
-0.475081 1.34108 0.109906 165 158 147
-0.469744 1.345927 0.109434 166 159 148
-0.464727 1.351763 0.109049 165 159 147
-0.459635 1.357468 0.108657 166 159 147
-0.45448 1.363078 0.10826 166 159 148
-0.451027 1.373929 0.108307 166 160 148
-0.445972 1.380107 0.107962 168 160 149
-0.440705 1.385729 0.107575 167 159 148
-0.435396 1.391315 0.107189 167 160 148
-0.429687 1.395698 0.10671 167 161 149
-0.424451 1.40169 0.106368 166 160 148
-0.419821 1.409817 0.106202 167 161 149
-0.414642 1.416264 0.105905 166 160 148
-0.409033 1.421362 0.105505 167 161 149
-0.403605 1.427181 0.105167 166 160 148
-0.398958 1.435916 0.105062 167 161 149
-0.393128 1.440568 0.104643 167 161 149
-0.38747 1.445938 0.104286 168 162 150
-0.382845 1.455323 0.10424 168 162 150
-0.377232 1.461172 0.103928 167 161 149
-0.371339 1.466059 0.103548 168 162 150
-0.364975 1.469162 0.103041 168 162 150
-0.358433 1.471572 0.102491 168 162 150
-0.352777 1.477689 0.102221 168 162 150
-0.348442 1.489598 0.102381 169 162 150
-0.344879 1.505283 0.102815 169 162 151
-0.339886 1.515206 0.102827 169 162 151
-0.33471 1.524651 0.102806 169 163 151
-0.334675 1.558285 0.104514 169 163 151
-0.323145 1.538828 0.102432 170 163 151
-0.319336 1.555871 0.102952 170 163 151
-0.309392 1.543146 0.10138 170 163 151
-0.303655 1.551144 0.101271 170 163 151
-0.298225 1.56106 0.101298 170 163 151
-0.291043 1.562027 0.100709 170 163 151
-0.284828 1.568279 0.100489 170 163 151
-0.279004 1.576989 0.10044 170 163 151
-0.272666 1.583127 0.100218 170 163 152
-0.265759 1.586143 0.09979 170 164 152
-0.259917 1.595786 0.099809 170 164 152
-0.253681 1.603439 0.099697 169 163 151
-0.247809 1.613856 0.099769 169 163 151
-0.24172 1.623402 0.099783 169 163 151
-0.236145 1.637057 0.100065 169 163 151
-0.229517 1.644012 0.09991 169 163 151
-0.22314 1.65324 0.099903 169 163 151
-0.216268 1.659265 0.099692 169 162 151
-0.209806 1.668927 0.099714 169 162 151
-0.202361 1.671133 0.099264 169 162 151
-0.194579 1.670563 0.098643 169 162 151
-0.187301 1.674382 0.098305 169 162 151
-0.182572 1.702257 0.099471 169 162 151
-0.177426 1.728521 0.100523 169 162 151
-0.171462 1.748847 0.101198 169 161 150
-0.166418 1.780991 0.102591 169 161 150
-0.157936 1.777608 0.1018 169 161 150
-0.147757 1.753575 0.099764 169 161 150
-0.142756 1.791945 0.101517 169 161 150
-0.135568 1.805712 0.101774 169 161 150
-0.127566 1.809623 0.101439 169 161 150
-0.119587 1.814349 0.101156 168 161 150
-0.111276 1.814269 0.100591 168 160 149
-0.103933 1.831309 0.101038 168 160 149
-0.09677 1.854815 0.101859 168 160 149
-0.088612 1.861687 0.101703 168 160 149
-0.080535 1.871912 0.101742 167 159 148
-0.072105 1.875185 0.10138 168 160 149
-0.064503 1.904201 0.102497 167 159 148
-0.055957 1.909504 0.10225 167 159 148
-0.047263 1.910594 0.101766 167 159 148
-0.038558 1.911557 0.10128 167 159 148
-0.029768 1.90729 0.100505 167 159 148
-0.021017 1.902817 0.099726 166 159 148
-0.012554 1.942071 0.101386 166 158 148
-0.003704 1.955432 0.101597 166 158 147
0.005256 1.965234 0.10161 166 158 147
0.014254 1.968612 0.101271 166 158 147
0.023267 1.97069 0.100865 166 158 147
0.032714 1.996682 0.10176 165 157 147
0.041912 2.000378 0.101443 165 157 146
0.051482 2.016788 0.101813 165 157 146
0.06084 2.021447 0.101552 164 157 146
0.070363 2.029516 0.101476 163 157 145
0.079946 2.03715 0.101377 164 156 146
0.08956 2.043852 0.101232 164 156 147
0.09913 2.048344 0.100973 163 155 146
0.108621 2.05057 0.1006 163 156 145
0.118192 2.053743 0.10028 162 155 144
0.128347 2.065585 0.100414 162 154 143
0.138268 2.072323 0.100285 163 155 144
0.148054 2.076288 0.100017 163 155 144
0.158264 2.08518 0.100005 161 155 143
0.1683 2.090887 0.099834 162 155 143
0.178217 2.094523 0.099562 161 154 142
0.187973 2.095939 0.099182 160 153 143
0.198123 2.101272 0.099006 163 155 146
0.207523 2.09855 0.098432 147 138 128
0.216896 2.095744 0.097861 132 123 108
0.226258 2.092979 0.097301 130 121 105
0.235658 2.0907 0.096773 130 121 104
0.244903 2.087213 0.096194 128 119 102
0.253901 2.081901 0.095534 128 119 102
0.263083 2.078319 0.094969 127 118 102
0.271992 2.072859 0.094321 127 118 102
0.280606 2.065525 0.093592 127 118 101
0.289319 2.059284 0.092927 126 118 101
0.298163 2.054242 0.092329 126 117 101
0.306757 2.047778 0.091674 126 117 101
0.314816 2.038175 0.090879 126 117 101
0.323899 2.035404 0.090421 126 117 101
0.332675 2.030842 0.089888 125 117 101
0.341006 2.023824 0.089249 125 116 101
0.349391 2.017399 0.088648 125 116 101
0.357609 2.010278 0.088027 125 116 101
0.366593 2.007568 0.087623 125 116 100
0.374682 2.000173 0.08701 125 116 100
0.383233 1.995414 0.086532 125 116 101
0.391949 1.991605 0.086109 125 116 101
0.399956 1.984389 0.085539 125 116 100
0.408001 1.977583 0.085 126 117 100
0.416098 1.971214 0.084492 125 116 101
0.4246 1.966876 0.08409 126 117 102
0.432812 1.961308 0.083642 124 115 100
0.441351 1.957303 0.083278 125 116 101
0.44926 1.950646 0.082804 124 115 100
0.456605 1.94177 0.08224 124 115 100
0.464615 1.935875 0.081825 123 114 99
0.473022 1.931706 0.0815 122 114 99
0.480041 1.922077 0.080938 121 114 98
0.487083 1.912788 0.080404 121 114 98
0.494567 1.905418 0.07997 121 114 98
0.501612 1.896554 0.079479 121 114 98
0.50974 1.891878 0.079191 120 113 97
0.517904 1.887373 0.078921 120 113 97
0.524786 1.878368 0.07846 121 112 97
0.53232 1.871825 0.078121 118 110 94
0.538257 1.859925 0.077552 118 110 93
0.547634 1.859872 0.077529 118 110 93
0.556333 1.857457 0.07741 118 110 94
0.560999 1.8419 0.076709 118 110 94
0.564134 1.821836 0.075814 118 110 94
0.566583 1.800153 0.074856 118 110 94
0.57827 1.807624 0.075223 117 110 94
0.588005 1.808802 0.075316 117 110 94
0.596011 1.804647 0.075177 117 109 93
0.600118 1.789008 0.074526 116 109 93
0.607822 1.784189 0.074372 116 109 93
0.616323 1.78169 0.074329 116 108 92
0.615341 1.752442 0.073079 115 108 92
0.617192 1.731826 0.072224 115 108 92
0.630702 1.743622 0.072846 115 108 92
0.638901 1.740669 0.0728 115 108 92
0.644179 1.729956 0.072404 115 108 92
0.651963 1.726039 0.072317 115 108 92
0.660071 1.723001 0.07227 115 108 92
0.663628 1.708393 0.071693 114 107 91
0.670681 1.702917 0.071529 114 107 91
0.676885 1.695442 0.071268 114 107 91
0.684114 1.69064 0.071123 114 107 91
0.691185 1.685558 0.070957 114 107 91
0.699122 1.68266 0.070881 114 106 91
0.70548 1.67612 0.070625 114 105 90
0.710378 1.666369 0.070207 114 106 90
0.717022 1.660883 0.06997 114 107 91
0.723275 1.654681 0.069681 114 107 91
0.729537 1.648696 0.069382 113 106 90
0.736323 1.64407 0.069123 115 108 92
0.742771 1.638888 0.068815 113 106 90
0.748599 1.632569 0.068428 113 106 90
0.754616 1.626896 0.068043 113 106 90
0.759836 1.619776 0.067563 113 106 90
0.765453 1.613758 0.067103 114 107 91
0.770608 1.607048 0.066579 113 106 90
0.775841 1.600781 0.066042 111 104 88
0.783334 1.599358 0.06569 111 104 88
0.78842 1.59331 0.065093 112 105 89
0.79367 1.587874 0.064487 112 105 89
0.800371 1.585561 0.063985 112 105 89
