ply
format ascii 1.0
comment ---
element vertex 1194
property float x
property float y
property float z
property uchar red
property uchar green
property uchar blue
element face 0
property list uchar uint vertex_indices
end_header
0.234878 2.052948 -0.543238 170 158 144
0.243713 2.045754 -0.542125 166 154 140
0.253072 2.041923 -0.541654 166 154 140
0.262523 2.038738 -0.541303 163 151 137
0.271738 2.034338 -0.540711 144 130 119
0.279193 2.020658 -0.538316 36 26 16
0.288872 2.019201 -0.538281 48 41 31
0.298486 2.017405 -0.538174 140 130 120
0.305022 2.000319 -0.535095 52 45 37
0.31345 1.993139 -0.53393 38 30 19
0.322905 1.991074 -0.533751 141 133 120
0.332041 1.987544 -0.533282 79 69 59
0.340535 1.981183 -0.532256 125 115 105
0.348204 1.97136 -0.530548 163 153 141
0.356772 1.965774 -0.529658 165 155 143
0.365786 1.96223 -0.529158 167 157 145
0.374321 1.956761 -0.528277 166 156 146
0.382223 1.948846 -0.526911 167 157 145
0.390764 1.943716 -0.52608 166 156 144
0.399876 1.940939 -0.525701 164 154 142
0.406776 1.929688 -0.523661 165 155 143
0.414669 1.922515 -0.522408 164 154 142
0.422351 1.914743 -0.52103 167 157 145
0.430449 1.908679 -0.519978 164 154 142
0.438887 1.903959 -0.51918 166 156 144
0.44764 1.90042 -0.518605 166 156 144
0.45536 1.893363 -0.517334 165 155 143
0.461878 1.882396 -0.515289 165 155 143
0.470559 1.878901 -0.514697 164 154 142
0.479295 1.87561 -0.514137 165 155 143
0.487279 1.86992 -0.513098 165 155 143
0.494153 1.860813 -0.511381 165 155 143
0.501249 1.852595 -0.509828 163 153 141
0.509164 1.847051 -0.508791 165 155 143
0.51634 1.839358 -0.507322 164 154 142
0.524616 1.835072 -0.506512 165 155 143
0.532396 1.829374 -0.505416 165 155 143
0.539691 1.822351 -0.50405 164 154 141
0.546448 1.813913 -0.502397 164 154 141
0.55413 1.808208 -0.501269 163 154 140
0.561888 1.802781 -0.500186 163 153 140
0.568447 1.794152 -0.498466 163 153 140
0.57482 1.785172 -0.496666 163 153 140
0.58085 1.775433 -0.494708 163 153 139
0.588135 1.769131 -0.493412 163 152 139
0.593152 1.757078 -0.49098 163 152 139
0.601638 1.75403 -0.490301 163 152 139
0.606957 1.743053 -0.488059 162 152 138
0.617019 1.743944 -0.488129 163 152 138
0.626307 1.742824 -0.487794 163 152 138
0.625331 1.717012 -0.48262 162 152 138
0.632382 1.710763 -0.481262 162 152 138
0.640559 1.707196 -0.480417 163 152 138
0.649475 1.705314 -0.479891 163 152 138
0.657253 1.70078 -0.478835 163 151 137
0.664931 1.696025 -0.477725 163 151 137
0.672835 1.691779 -0.476705 163 151 137
0.679561 1.684947 -0.47517 164 152 138
0.685099 1.675603 -0.473136 164 152 138
0.687637 1.659963 -0.469868 163 151 137
0.696016 1.656927 -0.469044 164 152 138
0.703244 1.651452 -0.467736 164 152 138
0.707213 1.639288 -0.465121 166 154 140
0.713761 1.632553 -0.463553 164 152 138
0.720527 1.626314 -0.462073 164 152 138
0.727115 1.61976 -0.460526 164 152 138
0.734252 1.614336 -0.45919 164 152 138
0.74105 1.608279 -0.457727 162 150 136
0.747537 1.601667 -0.456151 164 152 138
0.751447 1.590226 -0.45364 163 151 137
0.758725 1.585268 -0.452377 160 151 136
0.765331 1.579088 -0.450877 163 154 139
0.771196 1.571607 -0.449126 162 150 134
0.777566 1.565131 -0.447568 162 150 136
0.782028 1.555306 -0.445371 161 152 137
0.788719 1.54958 -0.443964 162 153 138
0.796171 1.545254 -0.442829 162 153 138
0.802307 1.538687 -0.441273 163 151 137
0.809554 1.534119 -0.440107 161 152 137
0.810762 1.519372 -0.437006 160 151 136
0.820873 1.519844 -0.436826 161 152 137
0.827196 1.513998 -0.435453 162 153 137
0.833392 1.508054 -0.434078 162 153 137
0.839519 1.502119 -0.432722 163 153 137
0.846742 1.498078 -0.431748 163 153 138
0.853483 1.49337 -0.43067 163 153 138
0.859837 1.488174 -0.429524 163 153 138
0.865052 1.481342 -0.428094 163 154 138
0.872111 1.477545 -0.427269 163 154 138
0.878803 1.47332 -0.426394 163 154 138
0.88574 1.469618 -0.42565 163 154 138
0.890867 1.463344 -0.424453 163 154 138
0.896444 1.457946 -0.423458 163 154 139
0.903418 1.454805 -0.422928 163 154 139
0.907573 1.447702 -0.421683 163 155 139
0.912744 1.44231 -0.420803 163 155 139
0.91757 1.436634 -0.419907 163 155 139
0.927915 1.439046 -0.42059 163 155 139
0.931824 1.432452 -0.419601 163 155 140
0.941476 1.434152 -0.420231 164 155 140
0.94776 1.43128 -0.420032 164 155 140
-0.62352 1.171981 -0.333512 198 189 174
-0.619877 1.175704 -0.334166 198 189 174
-0.615349 1.177595 -0.334561 199 190 175
-0.611066 1.180302 -0.335122 198 189 172
-0.608099 1.186429 -0.336268 199 190 175
-0.604235 1.190682 -0.33715 198 189 174
-0.59989 1.194024 -0.337921 199 190 175
-0.59603 1.198829 -0.338964 199 190 175
-0.592122 1.2038 -0.340068 201 192 177
-0.588061 1.208662 -0.341191 201 192 177
-0.583754 1.213164 -0.34229 201 192 177
-0.57874 1.216071 -0.343163 200 193 177
-0.573693 1.219105 -0.344088 202 195 179
-0.569221 1.223902 -0.34533 203 194 179
-0.565823 1.23189 -0.347122 203 194 179
-0.561462 1.237537 -0.348562 203 194 179
-0.55627 1.241104 -0.349687 205 196 181
-0.551279 1.245435 -0.350962 205 196 181
-0.549225 1.258485 -0.353698 205 196 181
-0.543955 1.262529 -0.354972 206 197 182
-0.538583 1.266442 -0.356243 206 199 183
-0.532716 1.269022 -0.357308 205 198 182
-0.527995 1.275241 -0.358995 204 196 183
-0.522946 1.280656 -0.360562 206 198 185
-0.519212 1.290442 -0.362876 206 198 185
-0.514009 1.295802 -0.36446 206 199 183
-0.508647 1.300804 -0.365992 206 199 183
-0.504094 1.30867 -0.368018 206 199 183
-0.499308 1.315988 -0.36996 207 200 184
-0.493663 1.320552 -0.37144 206 199 183
-0.487925 1.324906 -0.372886 207 200 184
-0.483107 1.332676 -0.374921 208 201 185
-0.477763 1.338756 -0.37667 209 201 188
-0.471897 1.343049 -0.378111 209 201 188
-0.466317 1.34853 -0.379757 212 204 191
-0.462397 1.360604 -0.382548 213 203 191
-0.456667 1.36591 -0.384165 212 204 191
-0.450976 1.371504 -0.38583 212 204 191
-0.445384 1.377656 -0.38759 212 204 191
-0.439868 1.3843 -0.389435 214 204 192
-0.434564 1.392046 -0.391471 216 208 195
-0.428575 1.397029 -0.393018 215 206 191
-0.422833 1.403248 -0.394778 216 207 192
-0.417388 1.41102 -0.396811 217 208 193
-0.411324 1.416138 -0.398368 219 210 195
-0.40605 1.42521 -0.400625 218 209 194
-0.400147 1.431515 -0.402385 218 209 194
-0.394146 1.43753 -0.404089 221 211 199
-0.388592 1.446071 -0.406242 220 211 196
-0.382749 1.453418 -0.408176 222 212 200
-0.377075 1.461968 -0.410323 224 214 202
-0.370702 1.466963 -0.411824 226 216 204
-0.364068 1.470617 -0.413076 225 216 201
-0.357727 1.476127 -0.414657 226 217 202
-0.351547 1.482839 -0.416452 227 217 207
-0.346667 1.498055 -0.419793 227 217 205
-0.340275 1.504289 -0.421494 228 218 206
-0.333767 1.510043 -0.423101 228 219 204
-0.327219 1.515801 -0.424704 228 218 206
-0.320656 1.52175 -0.426337 230 220 208
-0.314259 1.529254 -0.42825 230 220 208
-0.308354 1.540993 -0.430941 228 218 206
-0.302779 1.556165 -0.434265 228 218 206
-0.296573 1.567201 -0.436824 227 217 205
-0.290084 1.576605 -0.439079 229 219 207
-0.283371 1.584695 -0.441087 228 218 206
-0.276557 1.592459 -0.44303 227 217 205
-0.270038 1.603768 -0.445631 227 217 205
-0.263089 1.611648 -0.44759 226 216 204
-0.256084 1.619629 -0.449564 227 217 205
-0.249327 1.63124 -0.452215 227 218 203
-0.242283 1.640603 -0.454443 230 218 204
-0.235152 1.649899 -0.456656 228 216 204
-0.227862 1.658155 -0.45867 229 217 203
-0.220323 1.663808 -0.460192 226 214 200
-0.211972 1.65754 -0.45946 212 203 188
-0.204032 1.657131 -0.459824 193 183 171
-0.196761 1.668866 -0.462479 123 113 104
-0.190975 1.712491 -0.471175 187 178 169
-0.183482 1.727347 -0.474428 141 132 123
-0.176565 1.759788 -0.481022 205 195 186
-0.16762 1.744075 -0.478468 222 212 202
-0.159291 1.743336 -0.478751 213 203 193
-0.151379 1.758077 -0.481979 147 137 127
-0.144196 1.812576 -0.492797 199 189 179
-0.135447 1.805423 -0.491851 223 211 199
-0.127148 1.829019 -0.49678 224 212 200
-0.118481 1.833896 -0.498127 222 210 198
-0.109771 1.839886 -0.499685 222 210 198
-0.100992 1.852803 -0.502569 221 209 197
-0.092143 1.857118 -0.5038 224 212 200
-0.083142 1.871425 -0.50695 222 210 198
-0.074175 1.874785 -0.507992 220 208 196
-0.065106 1.881462 -0.50967 221 209 197
-0.055595 1.903166 -0.514247 217 207 195
-0.046651 1.89875 -0.513779 218 206 194
-0.037452 1.902849 -0.514953 210 198 186
-0.029314 1.878675 -0.510648 190 177 168
-0.019794 1.891139 -0.513431 141 131 122
-0.008138 1.945121 -0.524269 172 162 153
0.001322 1.948152 -0.525228 150 137 128
0.011628 1.965204 -0.528909 213 200 192
0.021076 1.965885 -0.529406 196 183 175
0.030908 1.972052 -0.530968 129 119 110
0.041781 1.99177 -0.535169 195 185 175
0.051751 1.997199 -0.536585 208 195 186
0.061621 2.000675 -0.537617 211 198 189
0.07207 2.01038 -0.539863 209 196 187
0.082388 2.017535 -0.54161 206 193 184
0.09299 2.026863 -0.54378 206 194 182
0.103684 2.036129 -0.545937 207 194 185
0.114305 2.043776 -0.547775 203 190 181
0.124868 2.050143 -0.54936 203 190 181
0.135512 2.056597 -0.55096 201 188 179
0.146169 2.062551 -0.552459 200 187 178
0.156535 2.065617 -0.553388 197 184 175
0.166975 2.068944 -0.554365 198 185 176
0.177472 2.072367 -0.555358 195 185 173
0.187479 2.071938 -0.555587 187 177 165
0.197238 2.069718 -0.555459 174 164 152
0.206826 2.066397 -0.555108 167 157 145
0.216435 2.063338 -0.554803 167 158 143
0.225688 2.058126 -0.554067 170 158 144
0.23486 2.052644 -0.553272 166 157 142
0.243928 2.046765 -0.552392 167 158 143
0.253167 2.042133 -0.551753 166 154 140
0.262322 2.037188 -0.551046 161 149 135
0.270826 2.028856 -0.549661 142 130 116
0.27848 2.016313 -0.547432 43 31 17
0.288542 2.016898 -0.547804 21 11 1
0.296406 2.006185 -0.545925 24 20 8
0.303934 1.994237 -0.543792 25 19 7
0.312942 1.989951 -0.543177 24 15 8
0.322563 1.988689 -0.543157 32 23 14
0.331714 1.985224 -0.542693 29 19 9
0.339875 1.977351 -0.541344 130 120 110
0.348034 1.969732 -0.540038 167 157 145
0.356941 1.965599 -0.53942 164 154 142
0.36585 1.961565 -0.538816 166 156 144
0.374195 1.955269 -0.537753 165 155 145
0.382795 1.950184 -0.536924 166 156 144
0.391451 1.945443 -0.536157 166 156 144
0.399838 1.939748 -0.535192 166 156 144
0.407819 1.93263 -0.533935 164 154 142
0.415011 1.922721 -0.532111 165 155 143
0.422704 1.914951 -0.530707 165 155 143
0.430586 1.908063 -0.529471 164 154 142
0.438989 1.903193 -0.528632 164 154 142
0.44789 1.90015 -0.528151 165 155 143
0.455842 1.893863 -0.527012 166 156 144
0.462564 1.883547 -0.525056 166 156 144
0.470515 1.877571 -0.523962 164 154 142
0.478587 1.872107 -0.522962 164 154 142
0.486473 1.866128 -0.52185 163 153 141
0.493871 1.858711 -0.52044 164 155 140
0.50103 1.850698 -0.518902 163 153 141
0.507402 1.840434 -0.516902 163 153 141
0.515438 1.835412 -0.515946 163 153 141
0.523547 1.830669 -0.515037 162 152 140
0.532388 1.828114 -0.514558 161 151 139
0.539581 1.820795 -0.513112 163 153 140
0.547391 1.815345 -0.512032 163 153 140
0.554934 1.809212 -0.510805 162 153 140
0.562641 1.80361 -0.509675 162 152 139
0.569523 1.795829 -0.508096 162 152 139
0.577033 1.789848 -0.50687 162 152 139
0.581767 1.776611 -0.504175 162 152 138
0.584492 1.758418 -0.500474 162 152 138
0.594309 1.75881 -0.500497 162 151 138
0.600865 1.75084 -0.49883 162 151 138
0.611821 1.753956 -0.49938 162 151 137
0.621261 1.753149 -0.49913 162 151 137
0.627631 1.744801 -0.497355 162 151 137
0.624628 1.714104 -0.491085 161 151 137
0.632402 1.709588 -0.49006 162 151 137
0.641517 1.708212 -0.489654 162 151 137
0.65027 1.705924 -0.489053 162 151 137
0.658117 1.701525 -0.488019 162 150 136
0.666427 1.698164 -0.487182 163 151 137
0.673463 1.691953 -0.485764 164 152 138
0.680156 1.685033 -0.484194 164 152 138
0.685831 1.675969 -0.482185 164 152 138
0.691022 1.665983 -0.479983 163 151 137
0.696279 1.656269 -0.477828 164 152 138
0.702853 1.649424 -0.476236 166 154 140
0.709056 1.641872 -0.474495 162 153 138
0.713556 1.630925 -0.472069 161 152 137
0.716786 1.617581 -0.46916 164 152 138
0.728669 1.621627 -0.469706 163 151 137
0.735805 1.616157 -0.46835 162 150 136
0.742317 1.609504 -0.466752 163 151 137
0.746613 1.598655 -0.464318 166 154 140
0.751671 1.589403 -0.462196 165 153 139
0.75945 1.585366 -0.461106 160 151 136
0.764694 1.576636 -0.459083 161 152 137
0.772169 1.572103 -0.45789 160 151 134
0.778407 1.56535 -0.456257 160 151 136
0.78441 1.558251 -0.454558 159 150 135
0.791035 1.552339 -0.453096 161 152 137
0.797523 1.546255 -0.451604 159 150 135
0.802726 1.53802 -0.449694 161 149 135
0.809284 1.532234 -0.448275 164 152 138
0.81561 1.526138 -0.446803 160 151 136
0.821997 1.520241 -0.445382 159 150 135
0.828543 1.514706 -0.444046 162 152 137
0.835048 1.509205 -0.442731 162 152 137
0.842882 1.505972 -0.441877 162 153 137
0.845903 1.495073 -0.439542 162 153 137
0.8538 1.492168 -0.438793 162 153 137
0.857501 1.482736 -0.436791 162 153 138
0.864262 1.478301 -0.435792 162 153 138
0.869308 1.471349 -0.434329 162 153 138
0.876361 1.467659 -0.433533 162 154 138
0.884129 1.465189 -0.433006 162 154 138
0.888941 1.458406 -0.43167 163 154 138
0.895687 1.454711 -0.430971 163 154 138
0.902279 1.450952 -0.430295 163 154 139
0.909104 1.447705 -0.429757 163 154 139
0.912411 1.439531 -0.428294 163 154 139
0.918458 1.435551 -0.427689 163 155 139
0.922634 1.429102 -0.426639 163 155 139
0.935617 1.435316 -0.428109 163 155 139
0.940746 1.430571 -0.427473 163 155 140
0.951109 1.43331 -0.428346 164 155 140
-0.624391 1.1708 -0.338966 197 188 171
-0.62113 1.175477 -0.339813 198 189 174
-0.616291 1.176716 -0.340128 197 188 171
-0.611759 1.178901 -0.340633 198 189 172
-0.608522 1.184435 -0.341728 200 191 174
-0.604379 1.18807 -0.342544 198 189 174
-0.600456 1.192507 -0.343529 201 192 177
-0.596202 1.196394 -0.344459 202 193 178
-0.591593 1.199648 -0.345317 201 192 177
-0.587604 1.204726 -0.346513 201 192 177
-0.583754 1.210445 -0.34785 202 193 178
-0.578658 1.21319 -0.348722 202 193 178
-0.573918 1.217087 -0.349818 203 194 179
-0.569482 1.222035 -0.35112 203 194 179
-0.565797 1.229286 -0.352837 204 195 180
-0.561674 1.235629 -0.354431 204 195 180
-0.556782 1.240092 -0.355733 203 194 179
-0.550561 1.240977 -0.356452 205 196 181
-0.548769 1.254769 -0.359383 206 197 182
-0.544038 1.260408 -0.360953 204 195 180
-0.538772 1.264673 -0.362307 205 196 181
-0.533522 1.269155 -0.363715 205 198 182
-0.528489 1.274474 -0.36528 204 196 183
-0.523499 1.280115 -0.366914 204 196 183
-0.518472 1.285824 -0.368573 206 198 185
-0.5145 1.295129 -0.370865 205 198 182
-0.50919 1.300339 -0.372458 207 200 184
-0.504763 1.308655 -0.3746 206 199 183
-0.499427 1.314138 -0.376255 204 197 181
-0.493983 1.319401 -0.377876 207 200 184
-0.488384 1.324261 -0.37943 207 200 184
-0.483874 1.333156 -0.381698 209 201 188
-0.478016 1.337388 -0.383146 210 203 187
-0.472331 1.342363 -0.384725 210 203 187
-0.467465 1.35057 -0.386879 209 202 186
-0.463181 1.361284 -0.389482 211 201 189
-0.457653 1.367423 -0.391269 211 202 187
-0.451747 1.372202 -0.392811 211 204 188
-0.44639 1.379356 -0.394777 214 207 191
-0.441108 1.387034 -0.396836 215 205 193
-0.435355 1.392928 -0.39857 216 207 192
-0.42934 1.397834 -0.400122 217 208 193
-0.423515 1.403713 -0.401845 215 206 191
-0.417576 1.409235 -0.4035 217 208 193
-0.411718 1.415295 -0.405248 219 210 195
-0.40631 1.423711 -0.407422 220 211 196
-0.400494 1.430422 -0.409282 219 210 195
-0.394614 1.43704 -0.411119 221 211 199
-0.388605 1.443218 -0.412871 221 212 197
-0.382646 1.449887 -0.414709 222 213 198
-0.377294 1.460116 -0.417202 224 214 202
-0.371273 1.467045 -0.41908 224 214 202
-0.364875 1.47209 -0.420603 226 217 202
-0.358605 1.478078 -0.422296 225 216 201
-0.352588 1.485859 -0.424318 227 217 205
-0.346697 1.494802 -0.426554 225 216 201
-0.34033 1.501118 -0.428294 228 219 204
-0.333758 1.506371 -0.42983 228 219 204
-0.327577 1.514573 -0.431915 228 218 206
-0.321457 1.52367 -0.434165 227 217 205
-0.315845 1.537075 -0.437226 227 217 205
-0.309755 1.547699 -0.439761 229 219 207
-0.303389 1.556831 -0.442011 230 220 208
-0.296898 1.565554 -0.44418 228 218 206
-0.290502 1.575721 -0.446621 227 217 205
-0.283491 1.581127 -0.448153 227 217 205
-0.277251 1.594159 -0.451135 226 216 204
-0.270492 1.603224 -0.453358 228 218 206
-0.263565 1.611346 -0.455398 227 217 205
-0.256886 1.6229 -0.458093 227 217 205
-0.249558 1.628201 -0.459586 227 218 203
-0.24305 1.643914 -0.463076 226 216 204
-0.235696 1.650633 -0.464836 226 217 202
-0.228582 1.661383 -0.46737 229 217 203
-0.221264 1.670569 -0.4696 227 218 203
-0.212947 1.665465 -0.469063 212 203 188
-0.204002 1.648951 -0.466307 190 180 168
-0.197428 1.672785 -0.471362 124 114 105
-0.191776 1.719394 -0.480845 139 129 120
-0.184249 1.734307 -0.484181 189 179 170
-0.176393 1.744553 -0.48661 135 125 116
-0.167231 1.721205 -0.482488 61 51 42
-0.160216 1.759223 -0.490327 187 177 167
-0.151753 1.756329 -0.490183 149 139 129
-0.144734 1.817788 -0.502622 189 179 169
-0.136189 1.82445 -0.50435 224 211 202
-0.127543 1.828112 -0.505487 224 212 200
-0.118871 1.832909 -0.506842 221 209 197
-0.110156 1.838974 -0.508444 222 210 198
-0.101379 1.847342 -0.510496 223 211 199
-0.092487 1.861502 -0.513687 222 210 198
-0.083518 1.870141 -0.51579 222 210 198
-0.074535 1.874247 -0.516997 221 209 197
-0.065305 1.888511 -0.520207 220 208 196
-0.05621 1.891809 -0.52125 218 206 194
-0.046917 1.900622 -0.523381 217 205 193
-0.037643 1.906318 -0.524894 211 199 187
-0.029729 1.875549 -0.519168 194 181 172
-0.020533 1.880689 -0.520558 129 119 110
-0.008536 1.942667 -0.533245 61 51 42
0.001541 1.957323 -0.536534 37 27 18
0.011827 1.973115 -0.540051 38 28 19
0.020936 1.967554 -0.539313 36 26 17
0.030993 1.976774 -0.541517 111 98 90
0.041943 1.99711 -0.545941 206 193 184
0.051815 2.000762 -0.547033 209 196 187
0.061625 2.003131 -0.547865 208 195 186
0.071934 2.010939 -0.549783 207 194 185
0.08203 2.015485 -0.551046 206 193 184
0.092838 2.026932 -0.553691 204 191 182
0.103418 2.034932 -0.555643 203 190 181
0.114128 2.043351 -0.557679 206 193 184
0.124552 2.048342 -0.559023 200 187 178
0.135124 2.054124 -0.560525 199 186 177
0.145835 2.060517 -0.562147 196 186 176
0.156629 2.066998 -0.563785 194 184 174
0.166944 2.069196 -0.564557 194 184 172
0.177343 2.071781 -0.565403 194 184 172
0.187369 2.071402 -0.565647 184 174 162
0.197296 2.070272 -0.565736 170 161 146
0.20676 2.066001 -0.565184 169 160 145
0.216414 2.063162 -0.564916 169 160 145
0.225791 2.05865 -0.564304 168 156 142
0.234785 2.051969 -0.563247 168 156 142
0.243868 2.046124 -0.562353 167 155 141
0.253318 2.042651 -0.561935 164 155 140
0.262559 2.038103 -0.561293 161 149 135
0.271121 2.029986 -0.55992 156 144 130
0.279365 2.020508 -0.558262 161 147 136
0.287813 2.012496 -0.556896 165 151 140
0.296771 2.00739 -0.556115 163 151 137
0.304088 1.994304 -0.553702 164 152 138
0.31278 1.988428 -0.55275 160 148 136
0.322799 1.989022 -0.553113 110 96 87
0.33168 1.984241 -0.552373 74 62 50
0.339606 1.975275 -0.550771 134 122 110
0.347915 1.968311 -0.549571 167 155 143
0.356949 1.964704 -0.549051 165 153 141
0.365638 1.959705 -0.54824 165 155 143
0.373718 1.952299 -0.546929 165 155 145
0.382563 1.948221 -0.546292 166 156 144
0.391356 1.94402 -0.545623 165 155 143
0.399651 1.937949 -0.544564 164 154 142
0.408064 1.932483 -0.543621 165 155 143
0.415736 1.924348 -0.542124 164 154 142
0.422684 1.913753 -0.540113 165 155 143
0.430711 1.907377 -0.53896 165 155 143
0.439051 1.902256 -0.538057 164 154 142
0.447609 1.897994 -0.537323 166 154 142
0.455387 1.891111 -0.536043 166 154 142
0.46306 1.884024 -0.534712 165 153 141
0.47002 1.87472 -0.532916 166 154 142
0.478059 1.869162 -0.531882 164 154 142
0.485963 1.863261 -0.53077 163 153 141
0.494132 1.858303 -0.529842 164 154 142
0.499724 1.845395 -0.52727 162 152 140
0.506882 1.837597 -0.52574 163 153 141
0.514617 1.831687 -0.52459 161 151 139
0.524816 1.833174 -0.524954 163 153 141
0.531271 1.823586 -0.523028 162 152 140
0.539278 1.818655 -0.522052 162 152 139
0.547242 1.813651 -0.521051 162 152 139
0.555011 1.808155 -0.519939 162 151 139
0.562923 1.803108 -0.518911 161 151 139
0.572089 1.801512 -0.518583 161 151 138
0.575566 1.784651 -0.515099 161 151 138
0.581811 1.775454 -0.513186 161 151 137
0.588281 1.767 -0.511415 161 151 137
0.594568 1.758206 -0.509564 161 150 137
0.600249 1.748015 -0.507415 161 150 137
0.60987 1.747821 -0.507315 161 150 136
0.620343 1.749618 -0.507615 161 150 136
0.627 1.742 -0.505965 161 150 136
0.622956 1.708851 -0.499049 161 150 136
0.632369 1.70826 -0.498826 161 150 136
0.642298 1.708781 -0.49882 161 150 136
0.652035 1.708735 -0.498687 161 150 136
0.66034 1.705325 -0.497851 162 150 136
0.666243 1.696498 -0.495891 161 149 135
0.672767 1.689158 -0.494227 162 150 136
0.67843 1.680005 -0.492181 160 151 136
0.687284 1.677861 -0.491564 159 150 135
0.690992 1.664677 -0.488672 160 151 136
0.696975 1.656496 -0.486797 160 151 136
0.703542 1.649619 -0.485181 160 151 136
0.711279 1.645203 -0.484061 162 153 138
0.718073 1.638866 -0.482538 163 151 137
0.714447 1.611645 -0.476738 163 151 137
0.729414 1.621857 -0.478583 163 151 137
0.736168 1.615615 -0.477059 163 151 137
0.740723 1.605156 -0.474667 162 150 136
0.748244 1.600518 -0.473458 162 150 136
0.756554 1.597378 -0.472549 163 151 137
0.758574 1.582446 -0.469235 162 150 136
0.767881 1.581242 -0.468712 161 152 137
0.771851 1.570214 -0.46619 162 149 133
0.779081 1.565246 -0.464899 161 149 133
0.786162 1.560046 -0.463561 158 149 134
0.791199 1.551271 -0.4615 159 150 135
0.797234 1.544368 -0.459822 160 151 136
0.80292 1.536951 -0.458046 161 149 135
0.809798 1.531682 -0.45671 160 151 136
0.816484 1.526155 -0.455331 159 150 135
0.822094 1.518908 -0.453615 159 150 135
0.82817 1.512558 -0.452092 162 152 136
0.83594 1.509098 -0.451166 162 152 137
0.839506 1.498881 -0.448894 162 152 137
0.850863 1.501384 -0.449201 162 152 137
0.851623 1.487005 -0.446132 162 153 137
0.857418 1.480859 -0.444742 162 153 137
0.862503 1.47376 -0.443185 162 153 137
0.86869 1.468544 -0.442032 162 153 137
0.873862 1.461932 -0.440627 162 153 138
0.879295 1.455905 -0.43937 162 153 138
0.887967 1.45492 -0.439157 162 154 138
0.893864 1.449914 -0.438169 162 154 138
0.901777 1.448061 -0.437849 163 154 138
0.905414 1.440106 -0.43634 163 154 139
0.911737 1.436284 -0.435698 163 154 139
0.918929 1.433891 -0.43538 163 155 139
0.931276 1.438984 -0.436608 163 155 139
0.934216 1.43087 -0.435217 163 155 139
0.940539 1.42775 -0.434871 163 155 139
0.943252 1.419815 -0.433593 163 155 140
-0.628544 1.177206 -0.345724 197 188 171
-0.620972 1.171982 -0.344932 197 188 171
-0.616192 1.173408 -0.345301 197 188 171
-0.612708 1.17813 -0.346265 199 190 173
-0.608541 1.181497 -0.347035 199 190 173
-0.604797 1.186152 -0.348058 192 183 166
-0.600836 1.190555 -0.349074 200 191 176
-0.596305 1.193814 -0.34993 199 190 175
-0.59215 1.198264 -0.351023 200 191 176
-0.588415 1.204055 -0.35238 200 191 176
-0.583667 1.207525 -0.353371 203 194 179
-0.579548 1.212875 -0.354717 203 194 179
-0.574369 1.215685 -0.355656 203 194 179
-0.570261 1.221575 -0.357155 204 195 180
-0.565752 1.226642 -0.358539 203 194 179
-0.563862 1.239194 -0.361249 205 196 181
-0.557159 1.238704 -0.361721 205 196 181
-0.554465 1.249677 -0.36421 204 195 180
-0.548782 1.252416 -0.365286 205 196 181
-0.54439 1.259076 -0.367067 205 196 181
-0.539383 1.264154 -0.368589 203 196 180
-0.534578 1.270033 -0.370267 205 198 182
-0.529117 1.274108 -0.371642 204 196 183
-0.524064 1.279595 -0.373278 204 196 183
-0.51888 1.284846 -0.374883 206 198 185
-0.51322 1.288728 -0.376254 204 197 181
-0.509958 1.300591 -0.379058 207 200 184
-0.505026 1.307259 -0.380944 206 199 183
-0.49958 1.31238 -0.382558 208 201 185
-0.494352 1.318397 -0.384338 207 200 184
-0.489504 1.325913 -0.386393 207 200 184
-0.484322 1.332454 -0.388275 206 198 185
-0.479101 1.339033 -0.390166 210 203 187
-0.473403 1.344016 -0.391767 210 203 187
-0.468739 1.353042 -0.394107 209 202 186
-0.463947 1.361848 -0.396409 211 203 190
-0.458024 1.366462 -0.397941 212 205 189
-0.452264 1.371831 -0.39961 212 205 189
-0.446547 1.377515 -0.401333 213 206 190
-0.441088 1.384426 -0.403281 215 206 191
-0.435515 1.391048 -0.405172 216 207 192
-0.430245 1.399199 -0.407346 216 207 192
-0.424057 1.403494 -0.408797 219 210 195
-0.41801 1.408535 -0.410382 217 208 193
-0.412368 1.415611 -0.412344 218 209 194
-0.406425 1.421473 -0.414074 219 210 195
-0.401031 1.430218 -0.416342 219 210 195
-0.394965 1.435908 -0.418031 221 212 197
-0.388595 1.440206 -0.419451 222 213 198
-0.382321 1.445137 -0.420985 225 212 203
-0.377198 1.456494 -0.423734 223 215 202
-0.37072 1.460784 -0.425136 227 219 206
-0.365609 1.473074 -0.428059 225 216 201
-0.35878 1.475801 -0.429152 230 221 206
-0.351964 1.478663 -0.430264 232 222 210
-0.346082 1.48746 -0.432508 238 228 216
-0.340147 1.496367 -0.434769 239 229 217
-0.334271 1.506133 -0.437194 221 211 199
-0.32837 1.516278 -0.439689 228 218 206
-0.322525 1.527418 -0.442375 227 217 205
-0.316442 1.537487 -0.444851 226 217 202
-0.310159 1.546668 -0.447153 228 219 204
-0.303691 1.554976 -0.449283 227 217 205
-0.297225 1.563856 -0.451521 228 218 206
-0.290795 1.573687 -0.453941 227 217 205
-0.284196 1.582741 -0.456207 226 216 204
-0.277283 1.589575 -0.458036 228 218 206
-0.270592 1.599133 -0.460395 230 218 206
-0.263594 1.606377 -0.462298 227 217 205
-0.257318 1.622059 -0.465856 226 217 202
-0.2499 1.626374 -0.467177 225 216 201
-0.243348 1.641488 -0.470623 226 217 202
-0.236495 1.654504 -0.473655 225 215 203
-0.22945 1.666507 -0.476488 225 216 201
-0.221916 1.672999 -0.478228 227 218 203
-0.214306 1.679183 -0.479904 212 203 188
-0.204346 1.646976 -0.473956 191 181 169
-0.1979 1.67299 -0.479557 101 91 82
-0.191704 1.708769 -0.487107 68 58 49
-0.184831 1.737016 -0.493168 176 166 156
-0.175995 1.723833 -0.490972 182 171 165
-0.16896 1.756778 -0.497977 222 212 202
-0.161417 1.783386 -0.503724 222 212 202
-0.152182 1.756455 -0.498759 161 151 142
-0.145216 1.820095 -0.51193 185 175 165
-0.136508 1.818624 -0.512059 220 210 198
-0.127865 1.821153 -0.512985 224 212 200
-0.119225 1.827004 -0.514575 222 210 198
-0.11052 1.830848 -0.515758 221 209 197
-0.101781 1.832113 -0.516417 223 211 199
-0.09288 1.858423 -0.522126 220 210 198
-0.083963 1.86261 -0.523372 222 210 198
-0.074787 1.880964 -0.52748 220 208 196
-0.06567 1.887583 -0.529215 221 209 197
-0.056556 1.891376 -0.530376 218 206 194
-0.047381 1.895849 -0.531671 217 205 193
-0.038199 1.899175 -0.532731 213 199 188
-0.029634 1.885665 -0.530367 193 179 168
-0.020361 1.891224 -0.531871 114 101 93
-0.008561 1.948005 -0.543802 118 105 96
0.001832 1.96797 -0.548248 192 178 169
0.011619 1.97402 -0.549859 212 199 190
0.02136 1.97831 -0.551109 209 195 184
0.031419 1.986639 -0.553182 208 194 183
0.04164 1.996015 -0.555468 209 197 185
0.051453 1.998793 -0.556402 208 195 186
0.061479 2.00377 -0.557784 207 194 185
0.071642 2.009696 -0.559359 206 193 184
0.081648 2.013163 -0.560427 206 193 184
0.092717 2.027333 -0.56369 203 190 181
0.102982 2.03204 -0.56501 202 189 180
0.113611 2.03969 -0.566932 200 187 178
0.12397 2.044127 -0.568192 199 186 177
0.134354 2.048325 -0.5694 197 184 175
0.145676 2.059951 -0.572138 195 185 175
0.155951 2.062163 -0.572932 192 182 172
0.167135 2.071167 -0.575126 193 183 173
0.177406 2.072616 -0.575757 194 184 174
0.187528 2.072798 -0.576123 184 174 162
0.197341 2.070729 -0.576018 167 158 143
0.206821 2.066453 -0.575452 168 159 144
0.2163 2.062359 -0.574917 166 157 142
0.225795 2.058534 -0.574434 168 156 142
0.234867 2.052252 -0.573435 168 156 142
0.24381 2.045472 -0.572327 168 156 142
0.25336 2.042523 -0.572008 169 157 143
0.262853 2.039322 -0.571632 168 156 142
0.271384 2.030929 -0.57017 163 151 137
0.279781 2.022177 -0.568627 163 151 139
0.288659 2.016291 -0.567674 160 148 136
0.297826 2.01209 -0.567066 158 146 132
0.30672 2.006657 -0.566195 155 143 129
0.314594 1.996457 -0.564323 145 133 119
0.32298 1.989072 -0.563031 138 126 114
0.331612 1.983081 -0.562024 148 136 124
0.33985 1.975494 -0.560677 156 144 132
0.348109 1.96825 -0.559394 162 150 138
0.357105 1.964429 -0.558822 164 152 140
0.366286 1.961466 -0.558422 163 153 141
0.373464 1.950234 -0.556283 163 153 141
0.382367 1.946387 -0.555685 164 154 142
0.391038 1.941686 -0.554902 165 155 143
0.399669 1.936929 -0.554099 164 154 142
0.407802 1.930365 -0.55291 164 154 142
0.415653 1.922902 -0.551525 163 153 141
0.422732 1.912782 -0.549573 164 154 142
0.43069 1.906134 -0.548343 164 154 142
0.439011 1.900933 -0.547409 163 153 141
0.447386 1.896015 -0.546528 167 155 143
0.45529 1.889568 -0.545317 164 152 140
0.463002 1.882607 -0.54399 165 153 141
0.470763 1.875952 -0.542719 161 151 139
0.477694 1.866727 -0.540897 162 152 140
0.485941 1.861937 -0.540002 163 153 141
0.494407 1.857906 -0.539259 162 152 140
0.502457 1.852621 -0.538243 163 153 141
0.508822 1.842258 -0.536146 163 153 141
0.517214 1.838227 -0.535377 160 150 138
0.524537 1.831058 -0.533937 161 153 140
0.531975 1.82435 -0.532584 162 152 140
0.538373 1.814757 -0.530614 161 151 138
0.546489 1.810221 -0.529701 161 151 138
0.554536 1.805526 -0.528746 161 151 138
0.562878 1.801679 -0.52796 160 150 137
0.572377 1.800982 -0.52783 160 150 137
0.576772 1.786566 -0.524792 160 150 137
0.582182 1.77513 -0.522374 160 150 136
0.588134 1.765318 -0.52029 160 150 136
0.594611 1.757017 -0.518514 160 150 136
0.601038 1.748713 -0.516727 160 150 136
0.608734 1.74369 -0.515624 160 150 136
0.617407 1.7411 -0.515024 160 150 135
0.625181 1.736289 -0.513944 160 150 135
0.622413 1.706273 -0.507535 160 149 135
0.632396 1.707043 -0.507614 160 150 135
0.643184 1.709561 -0.50805 160 150 135
0.650737 1.704462 -0.506869 160 150 135
0.659143 1.701319 -0.50609 159 150 135
0.664932 1.692276 -0.504056 161 149 135
0.671999 1.686176 -0.502634 163 151 137
0.678321 1.67849 -0.500867 163 151 137
0.68452 1.670615 -0.499051 161 152 137
0.690398 1.662137 -0.497098 159 150 135
0.696461 1.654143 -0.495239 161 152 137
0.704186 1.649688 -0.494114 160 151 136
0.7117 1.644795 -0.492889 160 151 136
0.718515 1.638488 -0.491357 162 150 136
0.723181 1.627911 -0.488922 162 150 136
0.729736 1.621219 -0.487294 163 151 137
0.734799 1.611654 -0.485058 162 150 134
0.740762 1.603948 -0.483206 162 150 136
0.748566 1.599842 -0.482101 162 150 136
0.756187 1.595384 -0.480916 162 150 136
0.761069 1.585809 -0.478658 161 149 135
0.767172 1.578613 -0.476895 162 150 136
0.77088 1.567114 -0.474231 162 150 134
0.779957 1.565489 -0.473626 162 150 134
0.784825 1.556298 -0.471444 159 150 133
0.790406 1.548495 -0.469553 160 151 136
0.797224 1.542954 -0.468135 161 152 137
0.805366 1.539761 -0.467209 162 150 136
0.809775 1.530198 -0.464965 158 149 134
0.815957 1.52379 -0.463385 159 150 135
0.822743 1.518491 -0.462043 160 151 136
0.829306 1.512901 -0.460652 161 151 136
0.834908 1.505832 -0.458968 161 151 136
0.841475 1.500462 -0.457651 161 152 136
0.851226 1.500305 -0.457428 162 152 137
0.857244 1.494233 -0.456 162 152 137
0.858523 1.480852 -0.453085 162 152 137
0.863156 1.472986 -0.451332 162 153 137
0.867563 1.464965 -0.449573 162 153 137
0.87462 1.461193 -0.448718 162 153 137
0.879999 1.455019 -0.447396 162 153 138
0.882254 1.444356 -0.445178 162 153 138
0.895506 1.45028 -0.446413 162 154 138
0.899716 1.442898 -0.444938 162 154 138
0.904455 1.43652 -0.443704 162 154 138
0.910625 1.432427 -0.442977 163 154 139
0.919474 1.432353 -0.443117 163 154 139
0.927797 1.431656 -0.443167 163 155 139
0.936344 1.431415 -0.443349 163 155 139
0.938357 1.422197 -0.441713 163 155 139
0.947135 1.422627 -0.442112 163 155 140
-0.621314 1.157427 -0.348007 197 188 173
-0.621154 1.169311 -0.350189 198 189 174
-0.61674 1.171648 -0.350741 197 188 171
-0.61363 1.177315 -0.351909 199 190 173
-0.609748 1.181438 -0.352843 199 190 173
-0.605267 1.18438 -0.353605 199 190 175
-0.600936 1.187936 -0.354509 198 189 174
-0.597427 1.193786 -0.355849 201 192 177
-0.5933 1.198387 -0.357005 200 191 176
-0.590215 1.205911 -0.358708 201 192 177
-0.585411 1.209344 -0.359723 202 193 178
-0.580104 1.211693 -0.360577 202 192 180
-0.575923 1.217212 -0.36202 202 192 182
-0.572039 1.223796 -0.363681 202 192 180
-0.566777 1.226925 -0.364755 203 194 179
-0.563609 1.236011 -0.366917 204 195 180
-0.559662 1.243267 -0.368778 204 195 180
-0.554708 1.247948 -0.370201 204 197 181
-0.549967 1.253443 -0.37179 205 196 181
-0.545041 1.258617 -0.373341 204 195 180
-0.540073 1.263861 -0.374921 203 196 180
-0.534608 1.267799 -0.376278 205 198 182
-0.529754 1.273751 -0.378015 203 195 182
-0.524749 1.279432 -0.379714 204 196 183
-0.519835 1.285582 -0.381509 207 199 186
-0.515296 1.293132 -0.383571 205 197 184
-0.510281 1.299358 -0.385399 206 199 183
-0.505096 1.305199 -0.387163 205 198 182
-0.500418 1.312927 -0.389281 208 201 185
-0.494677 1.317209 -0.390766 206 199 183
-0.489553 1.323763 -0.392675 207 200 184
-0.485391 1.333943 -0.395262 210 203 187
-0.479762 1.339085 -0.396913 209 202 186
-0.474169 1.344488 -0.398613 211 204 188
-0.469166 1.352254 -0.400756 210 200 188
-0.463552 1.357887 -0.402498 210 202 189
-0.458093 1.364272 -0.40438 213 206 190
-0.452286 1.369431 -0.406028 211 204 188
-0.446675 1.375514 -0.407849 213 206 190
-0.441351 1.382966 -0.409927 216 206 194
-0.435836 1.38982 -0.411888 215 206 191
-0.429748 1.394375 -0.413408 216 207 192
-0.42423 1.401583 -0.41543 218 208 196
-0.418419 1.407677 -0.417236 218 208 196
-0.412788 1.414794 -0.419234 216 209 193
-0.407083 1.421794 -0.421206 218 211 195
-0.401523 1.429739 -0.423356 219 212 196
-0.395319 1.43474 -0.424933 220 211 196
-0.388692 1.4377 -0.426108 224 215 200
-0.38222 1.441535 -0.427446 222 214 203
-0.376052 1.447122 -0.429119 226 219 201
-0.370539 1.456566 -0.43154 224 216 203
-0.364573 1.463835 -0.433533 224 216 203
-0.35837 1.470022 -0.435309 221 213 200
-0.351602 1.473032 -0.436457 221 213 200
-0.345488 1.480223 -0.43842 228 220 207
-0.339627 1.489396 -0.44077 221 213 200
-0.334699 1.505273 -0.444443 220 210 198
-0.329329 1.519055 -0.447702 231 219 205
-0.322829 1.525641 -0.449535 229 220 205
-0.31677 1.535844 -0.452083 224 215 200
-0.310296 1.543528 -0.454127 226 217 202
-0.303963 1.552818 -0.456487 229 219 207
-0.297661 1.562997 -0.459023 227 217 205
-0.291219 1.572721 -0.461466 226 216 204
-0.284658 1.582108 -0.463839 226 216 204
-0.277981 1.591161 -0.466143 227 218 203
-0.270971 1.597709 -0.467941 226 217 202
-0.264257 1.607842 -0.470457 227 218 203
-0.257264 1.615929 -0.472558 226 217 202
-0.250873 1.631605 -0.476188 227 218 203
-0.244748 1.652154 -0.480803 227 218 203
-0.237528 1.661215 -0.483099 226 217 202
-0.229912 1.66601 -0.484529 225 216 201
-0.222456 1.673684 -0.486539 225 216 201
-0.214642 1.676878 -0.487637 216 207 192
-0.205247 1.654184 -0.483467 188 178 166
-0.198339 1.672496 -0.487625 134 124 115
-0.193373 1.732478 -0.500278 192 182 173
-0.184887 1.728112 -0.499826 146 136 127
-0.177221 1.742571 -0.503211 188 178 168
-0.168903 1.742864 -0.5037 216 206 196
-0.160921 1.753775 -0.506357 209 199 189
-0.152441 1.750122 -0.506029 154 144 135
-0.145219 1.800843 -0.516852 186 176 166
-0.136771 1.809457 -0.519042 224 212 200
-0.128238 1.817896 -0.521194 222 210 198
-0.119633 1.827191 -0.523521 220 208 196
-0.110911 1.829252 -0.524357 223 211 199
-0.102147 1.851593 -0.529372 223 211 199
-0.093274 1.855945 -0.530677 221 209 197
-0.084303 1.865385 -0.533031 221 209 197
-0.075128 1.882304 -0.536932 220 208 196
-0.066004 1.888394 -0.538591 221 209 197
-0.056781 1.896019 -0.540568 219 207 195
-0.047553 1.901178 -0.54203 219 207 195
-0.038476 1.900332 -0.542243 211 197 186
-0.030057 1.882521 -0.538922 203 189 178
-0.020457 1.895687 -0.54204 210 196 187
-0.008775 1.949493 -0.553627 208 194 185
0.000901 1.955545 -0.555271 205 191 180
0.010445 1.95819 -0.556201 207 193 182
0.020696 1.97168 -0.559395 208 196 184
0.0305 1.976467 -0.56077 209 197 185
0.04096 1.989674 -0.563905 209 197 185
0.050833 1.993462 -0.565068 206 193 184
0.060811 1.998005 -0.566387 206 193 184
0.070961 2.003942 -0.567996 204 191 182
0.081799 2.01674 -0.571044 201 188 179
0.092173 2.023304 -0.572783 201 188 179
0.102903 2.032707 -0.575118 200 187 178
0.11326 2.037611 -0.576505 197 184 175
0.123706 2.042804 -0.577951 196 183 174
0.134226 2.048126 -0.579422 195 185 175
0.144984 2.054918 -0.581201 196 186 176
0.156255 2.06523 -0.583723 194 184 174
0.166904 2.069867 -0.585044 193 183 173
0.177444 2.073257 -0.586099 194 184 174
0.18743 2.072335 -0.586239 186 176 164
0.197169 2.069658 -0.586002 169 160 145
0.206678 2.065523 -0.585452 167 158 143
0.216194 2.061607 -0.584943 162 153 138
0.225704 2.057808 -0.584454 165 156 141
0.235236 2.054283 -0.584018 166 154 140
0.243866 2.045496 -0.582458 166 154 140
0.25321 2.041261 -0.58186 166 154 140
0.262511 2.036937 -0.581237 162 153 138
0.27127 2.029787 -0.580007 163 151 137
0.280186 2.023762 -0.57901 162 152 140
0.289073 2.017818 -0.578025 161 151 139
0.298179 2.013197 -0.577316 160 151 136
0.30701 2.007359 -0.576341 159 150 135
0.31456 1.99551 -0.574076 160 150 138
0.323244 1.989498 -0.573051 162 150 138
0.331964 1.983842 -0.572096 162 150 138
0.340482 1.97745 -0.570976 163 151 139
0.349072 1.97157 -0.569961 162 150 138
0.357794 1.966438 -0.569099 163 151 139
0.366626 1.961902 -0.568358 164 154 142
0.375089 1.955945 -0.567306 163 153 141
0.382523 1.945959 -0.565382 163 153 141
0.391312 1.941689 -0.564678 162 152 140
0.399634 1.935682 -0.563594 162 152 140
0.407587 1.928407 -0.562231 164 154 142
0.415084 1.919607 -0.560532 163 153 141
0.423178 1.913257 -0.559352 162 152 140
0.431057 1.906273 -0.558029 164 154 142
0.439223 1.900479 -0.556953 161 151 139
0.447566 1.895422 -0.55603 166 154 142
0.455594 1.889376 -0.554885 164 152 140
0.463479 1.882967 -0.553654 163 153 141
0.471262 1.876348 -0.55237 162 152 140
0.478788 1.869026 -0.550926 162 152 140
0.486586 1.862728 -0.549695 160 150 138
0.495107 1.858826 -0.548973 162 152 140
0.503042 1.853138 -0.547856 162 152 140
0.509849 1.844092 -0.546006 162 152 140
0.517458 1.837649 -0.544709 162 152 140
0.526005 1.834091 -0.544027 164 152 140
0.53401 1.828965 -0.542997 161 149 137
0.540739 1.820231 -0.541178 160 150 138
0.546629 1.809289 -0.538872 160 150 137
0.554221 1.803316 -0.537631 160 150 137
0.562797 1.800124 -0.536983 160 150 136
0.568456 1.789024 -0.534614 159 149 136
0.584995 1.807179 -0.538564 159 149 136
0.581842 1.772904 -0.531163 159 149 136
0.588617 1.76524 -0.529508 159 149 135
0.595584 1.758179 -0.527974 159 149 135
0.610121 1.77031 -0.530582 159 149 135
0.606912 1.73783 -0.52353 159 149 135
0.616303 1.73706 -0.523327 159 149 135
0.624411 1.733096 -0.522423 159 149 135
0.622495 1.705161 -0.516325 159 149 135
0.632595 1.706201 -0.516484 159 149 134
0.641801 1.705024 -0.516152 159 149 135
0.650473 1.70254 -0.515527 159 149 135
0.658495 1.698532 -0.514563 159 150 135
0.668495 1.698947 -0.514543 160 151 136
0.67138 1.683499 -0.511088 162 150 136
0.678986 1.678635 -0.509908 162 150 136
0.685884 1.672253 -0.508391 162 150 136
0.691694 1.663596 -0.506374 162 150 136
0.698142 1.656381 -0.504658 159 150 135
0.704091 1.648189 -0.502723 162 150 136
0.710917 1.641885 -0.501186 163 151 137
0.717251 1.634621 -0.499434 163 151 137
0.72316 1.626568 -0.497504 161 149 135
0.728559 1.617583 -0.495367 163 151 137
0.734534 1.60983 -0.493488 159 147 131
0.740887 1.602883 -0.491775 163 151 137
0.748644 1.598677 -0.490645 163 151 137
0.755848 1.59342 -0.489283 163 151 137
0.759553 1.581646 -0.48652 163 149 136
0.766831 1.576645 -0.485205 164 150 137
0.774232 1.571888 -0.483939 162 150 136
0.77842 1.561351 -0.481435 161 149 135
0.784658 1.554624 -0.479746 163 151 137
0.790925 1.548018 -0.478083 160 151 136
0.797785 1.542521 -0.476659 159 150 135
0.806803 1.540805 -0.476045 159 150 135
0.814351 1.536557 -0.474894 159 150 135
0.815735 1.521932 -0.47154 160 151 136
0.822992 1.517393 -0.470343 158 146 132
0.830305 1.513007 -0.469187 161 151 136
0.836539 1.506921 -0.467682 161 151 136
0.843633 1.502338 -0.46651 161 151 136
0.854087 1.503226 -0.466515 161 152 136
0.861323 1.498996 -0.46545 161 152 136
0.862324 1.485077 -0.462351 161 152 136
0.865723 1.475188 -0.460129 161 152 137
0.876853 1.477427 -0.460502 162 152 137
0.88429 1.47404 -0.459708 162 153 137
0.886333 1.462636 -0.457243 162 153 137
0.894275 1.460336 -0.456736 162 153 137
0.898494 1.452642 -0.455117 162 153 138
0.900566 1.442029 -0.452913 162 153 138
0.905243 1.435492 -0.451605 162 154 138
0.912434 1.432801 -0.451147 162 154 138
0.919077 1.429486 -0.450593 163 154 139
0.927673 1.429114 -0.450699 163 154 139
0.93418 1.425944 -0.450249 163 155 139
0.937787 1.41892 -0.449019 163 155 139
0.951497 1.426104 -0.450846 163 155 139
-0.62659 1.166439 -0.355285 197 188 173
-0.620984 1.165852 -0.355307 198 189 174
-0.618402 1.172519 -0.356663 198 189 172
-0.614469 1.176319 -0.357539 196 187 170
-0.610419 1.180109 -0.358448 197 188 171
-0.606151 1.183633 -0.359344 199 190 175
-0.603 1.190149 -0.360813 201 192 177
-0.599686 1.196585 -0.362302 200 191 176
-0.595426 1.200968 -0.363454 200 191 176
-0.590055 1.20279 -0.364175 201 192 177
-0.585694 1.207404 -0.365432 200 191 176
-0.581583 1.212928 -0.366884 200 191 176
-0.578257 1.220797 -0.368793 202 193 178
-0.573035 1.223919 -0.369865 203 194 179
-0.568301 1.228556 -0.37124 204 195 180
-0.563756 1.233936 -0.372774 204 195 180
-0.55999 1.241731 -0.374775 204 195 180
-0.555767 1.248528 -0.376616 204 195 180
-0.550692 1.253134 -0.378073 206 197 182
-0.545579 1.257816 -0.379561 206 197 182
-0.540143 1.261715 -0.38092 204 197 181
-0.534842 1.266169 -0.382394 203 196 180
-0.529689 1.27123 -0.383993 204 196 183
-0.52589 1.280666 -0.386423 204 196 183
-0.521333 1.288012 -0.388473 207 199 186
-0.515766 1.292336 -0.389965 207 200 184
-0.509885 1.29575 -0.39129 207 198 183
-0.505464 1.304107 -0.393555 207 198 183
-0.50044 1.310673 -0.395487 205 198 182
-0.496818 1.322255 -0.398378 208 201 185
-0.489374 1.320788 -0.398787 208 201 185
-0.485238 1.331023 -0.40143 209 202 186
-0.480167 1.338172 -0.403485 209 202 186
-0.474559 1.343524 -0.405197 208 201 185
-0.46915 1.349757 -0.407077 209 201 188
-0.463283 1.354386 -0.408646 210 203 187
-0.457709 1.360264 -0.410454 211 204 188
-0.452563 1.368016 -0.412624 212 204 191
-0.447133 1.374829 -0.414609 212 204 191
-0.442523 1.385267 -0.417301 215 205 193
-0.43663 1.390572 -0.418988 214 206 193
-0.430578 1.39532 -0.420562 214 207 191
-0.424547 1.400267 -0.42217 216 209 193
-0.418442 1.405005 -0.423732 217 210 194
-0.412978 1.412855 -0.425902 217 209 196
-0.407022 1.418618 -0.427657 216 209 193
-0.401474 1.426559 -0.429839 219 212 196
-0.395333 1.431811 -0.431483 227 220 202
-0.389053 1.436508 -0.433012 226 218 205
-0.382529 1.440062 -0.434306 218 210 197
-0.376409 1.445887 -0.436048 218 210 197
-0.371065 1.456249 -0.438693 215 207 194
-0.365186 1.46402 -0.440817 214 208 194
-0.35855 1.46768 -0.442111 201 194 186
-0.352477 1.47487 -0.444109 149 142 134
-0.346587 1.483534 -0.4464 52 45 39
-0.341365 1.496938 -0.449647 68 59 50
-0.336407 1.512856 -0.453402 188 178 166
-0.329824 1.518574 -0.455092 230 218 204
-0.323511 1.526497 -0.457224 231 222 207
-0.317241 1.535195 -0.459511 228 219 204
-0.310671 1.54216 -0.461442 227 218 203
-0.304643 1.553832 -0.46433 227 218 201
-0.297984 1.561147 -0.466326 228 218 206
-0.291982 1.574573 -0.46957 228 218 206
-0.285278 1.582804 -0.471749 227 217 205
-0.278836 1.594115 -0.474558 228 218 206
-0.27196 1.602156 -0.476693 227 218 203
-0.2647 1.606973 -0.478161 226 217 202
-0.258047 1.618705 -0.481051 226 216 204
-0.251567 1.633562 -0.484586 227 217 205
-0.24448 1.642782 -0.486956 225 216 201
-0.237652 1.656296 -0.490213 225 216 201
-0.230224 1.663403 -0.492143 226 217 202
-0.222604 1.668642 -0.493682 225 216 201
-0.21469 1.670043 -0.49442 216 204 190
-0.205968 1.65823 -0.492403 194 184 172
-0.198134 1.660324 -0.493271 141 131 121
-0.193013 1.715993 -0.505309 107 96 90
-0.185155 1.723748 -0.507362 192 182 173
-0.177415 1.736075 -0.510369 155 145 136
-0.169375 1.74337 -0.512324 52 42 33
-0.162026 1.774251 -0.519219 183 173 163
-0.153568 1.775313 -0.519867 158 148 139
-0.145612 1.798858 -0.525232 187 175 163
-0.137129 1.805534 -0.527057 222 210 198
-0.12872 1.822529 -0.53105 223 211 197
-0.120134 1.837656 -0.534653 220 208 194
-0.11136 1.841703 -0.535921 222 210 198
-0.102546 1.845503 -0.537133 223 211 199
-0.093646 1.858015 -0.540184 219 209 197
-0.084624 1.870548 -0.543239 220 208 196
-0.07562 1.873752 -0.54432 221 209 197
-0.066323 1.890172 -0.548199 220 208 196
-0.057115 1.896391 -0.549917 220 208 196
-0.047901 1.900632 -0.551212 217 205 193
-0.03865 1.904656 -0.552458 217 203 192
-0.029614 1.901944 -0.552269 215 201 190
-0.019731 1.919316 -0.556353 214 200 189
-0.009567 1.939 -0.560932 214 200 189
0.000315 1.949668 -0.563592 209 197 185
0.010179 1.95814 -0.565782 209 197 185
0.019893 1.96281 -0.567159 208 196 184
0.029818 1.969855 -0.569042 209 197 185
0.040019 1.979715 -0.571528 206 194 182
0.050309 1.989407 -0.573977 205 192 183
0.060309 1.994279 -0.575392 205 192 183
0.07037 1.999239 -0.576824 202 189 180
0.081404 2.014306 -0.580426 200 187 178
0.091952 2.022675 -0.582589 200 187 178
0.102527 2.030426 -0.584619 198 185 176
0.113246 2.038749 -0.586772 196 183 174
0.123703 2.043864 -0.588232 198 185 176
0.134305 2.049735 -0.589853 191 181 171
0.145027 2.056037 -0.591566 192 182 172
0.155975 2.063592 -0.593548 191 181 171
0.166791 2.069472 -0.595167 192 182 172
0.177281 2.072396 -0.596145 192 182 170
0.18719 2.070838 -0.596149 181 171 159
0.196787 2.067119 -0.59568 167 158 143
0.206259 2.062719 -0.595059 165 156 141
0.215872 2.059429 -0.594674 164 155 140
0.225655 2.057333 -0.594543 164 155 140
0.234939 2.052207 -0.59375 162 153 138
0.244184 2.047067 -0.592947 165 153 139
0.253002 2.039654 -0.591645 164 152 140
0.261978 2.033458 -0.590602 162 152 140
0.271198 2.028853 -0.589899 161 152 137
0.280361 2.024106 -0.58916 161 152 137
0.289081 2.017204 -0.587945 161 152 137
0.298034 2.011752 -0.587041 160 151 136
0.306466 2.003902 -0.585607 162 152 140
0.314716 1.995466 -0.584038 161 151 139
0.323385 1.98932 -0.582963 160 150 138
0.33218 1.983956 -0.582053 160 150 138
0.340712 1.977564 -0.580913 161 151 139
0.349302 1.971626 -0.579865 162 152 140
0.358311 1.967677 -0.579247 161 151 139
0.367075 1.962776 -0.578414 161 151 139
0.375242 1.955519 -0.577057 165 153 141
0.383429 1.948557 -0.575759 165 153 141
0.391647 1.941913 -0.574523 163 153 141
0.400025 1.936073 -0.573457 163 153 141
0.40769 1.927645 -0.571815 162 152 140
0.415367 1.919494 -0.570226 162 152 140
0.423481 1.913178 -0.569034 163 153 141
0.431777 1.907668 -0.568011 162 152 140
0.4397 1.900942 -0.566714 161 151 139
0.447462 1.893813 -0.56532 163 153 141
0.455411 1.887484 -0.564095 162 152 140
0.46331 1.881121 -0.562854 161 151 141
0.471413 1.875561 -0.561783 162 152 142
0.479514 1.870092 -0.560724 161 151 139
0.487754 1.865162 -0.559776 161 151 141
0.4955 1.858745 -0.558492 160 150 138
0.502383 1.849766 -0.556633 162 152 140
0.508997 1.840158 -0.554626 162 152 140
0.517429 1.836222 -0.553864 160 150 138
0.52622 1.833379 -0.553336 163 151 139
0.534406 1.828765 -0.552408 163 151 139
0.541323 1.820552 -0.550674 160 149 137
0.547867 1.811435 -0.548731 159 149 137
0.554612 1.803047 -0.54694 159 149 136
0.562668 1.798404 -0.545969 159 149 135
0.569929 1.791647 -0.54452 159 149 135
0.582724 1.799742 -0.546352 159 148 135
0.589284 1.791109 -0.544469 159 148 135
0.585654 1.756198 -0.536756 158 148 135
0.598499 1.764273 -0.538554 158 148 134
0.61463 1.780307 -0.542106 158 148 134
0.607813 1.738718 -0.532884 158 148 134
0.617247 1.73802 -0.53271 158 148 134
0.62747 1.739145 -0.53293 158 148 134
0.623095 1.705257 -0.525385 158 148 134
0.635054 1.710657 -0.526531 158 148 134
0.643224 1.706992 -0.52566 159 148 134
0.6512 1.702865 -0.524676 159 148 134
0.66112 1.703142 -0.524657 158 149 134
0.665341 1.690538 -0.521777 159 150 135
0.672168 1.683901 -0.520208 161 149 135
0.679536 1.678498 -0.518902 162 150 136
0.686178 1.671551 -0.517245 161 149 135
0.692795 1.664607 -0.515579 159 150 135
0.698857 1.656552 -0.513658 160 151 136
0.70377 1.646193 -0.51122 159 150 135
0.711739 1.642241 -0.510187 159 150 135
0.71725 1.63329 -0.508043 162 150 136
0.725728 1.630382 -0.507223 162 150 136
0.730293 1.619686 -0.504679 162 150 136
0.73484 1.609097 -0.502152 161 149 133
0.741188 1.602131 -0.500416 161 149 135
0.748187 1.596462 -0.49896 159 147 133
0.755289 1.591017 -0.497547 162 150 136
0.760098 1.581313 -0.495193 161 149 135
0.766283 1.574272 -0.493421 161 149 135
0.773593 1.569351 -0.49211 162 150 136
0.779534 1.561978 -0.49026 160 148 134
