ply
format ascii 1.0
comment ---
element vertex 1206
property float x
property float y
property float z
property uchar red
property uchar green
property uchar blue
element face 0
property list uchar uint vertex_indices
end_header
0.555615 1.808769 -0.694882 170 158 144
0.563036 1.800729 -0.693701 171 159 148
0.570891 1.794418 -0.693039 171 159 146
0.5781 1.785982 -0.69172 172 160 146
0.585378 1.77798 -0.690525 171 159 145
0.593122 1.771719 -0.689856 171 159 145
0.601616 1.76805 -0.68998 171 159 145
0.609629 1.762843 -0.689626 171 159 145
0.617152 1.756153 -0.688807 171 159 145
0.624047 1.747617 -0.68741 170 160 146
0.63182 1.741969 -0.6869 169 159 147
0.639264 1.735409 -0.686101 168 158 146
0.645749 1.726104 -0.684438 168 158 146
0.652536 1.717884 -0.683104 169 158 146
0.658916 1.70865 -0.681444 170 158 144
0.665629 1.700553 -0.68013 169 158 144
0.672947 1.694304 -0.67939 170 158 144
0.681137 1.690556 -0.679434 169 159 144
0.686539 1.679254 -0.677084 170 159 145
0.695281 1.677134 -0.677634 170 158 145
0.704122 1.675248 -0.678259 170 158 145
0.710744 1.667555 -0.677032 170 158 145
0.714951 1.653805 -0.673863 169 158 145
0.721672 1.646706 -0.672806 169 158 145
0.730895 1.645947 -0.673776 169 158 145
0.732309 1.625943 -0.668559 169 158 145
0.74037 1.622503 -0.668655 169 158 145
0.748214 1.618552 -0.668583 169 158 145
0.753869 1.609457 -0.666843 169 158 145
0.759648 1.600811 -0.665238 169 158 144
0.765234 1.591864 -0.663526 169 158 144
0.772084 1.585928 -0.662784 170 158 144
0.778973 1.58015 -0.662089 169 158 144
0.785005 1.572546 -0.66079 169 157 143
0.792794 1.568881 -0.660775 169 157 142
0.797299 1.558156 -0.658435 169 157 142
0.805122 1.554668 -0.658468 169 157 142
0.813309 1.551947 -0.658751 169 157 141
0.819507 1.545087 -0.657664 169 157 142
0.825816 1.53854 -0.656671 168 156 141
0.832697 1.533226 -0.656083 169 157 143
0.837963 1.524727 -0.654427 168 156 142
0.844187 1.518241 -0.653434 168 156 142
0.851638 1.51422 -0.653258 167 155 141
0.858684 1.509428 -0.652821 168 156 142
0.86389 1.501159 -0.65121 169 157 143
0.870366 1.495389 -0.65043 168 156 142
0.877139 1.490224 -0.649849 168 156 142
0.883848 1.484973 -0.649234 167 155 139
0.891657 1.481759 -0.649304 169 157 143
0.8982 1.476256 -0.648593 169 157 143
0.903513 1.468604 -0.647144 169 157 143
0.90851 1.460479 -0.645524 169 157 143
0.912006 1.449839 -0.643033 170 158 144
0.917594 1.442946 -0.641813 170 158 144
0.925331 1.439774 -0.641865 171 159 145
0.932403 1.435466 -0.641523 171 159 145
0.939709 1.431552 -0.641312 170 158 144
0.946428 1.426668 -0.640762 171 159 145
0.95225 1.420338 -0.639705 172 160 146
0.958976 1.415512 -0.639163 173 161 147
0.962357 1.405361 -0.636761 172 160 146
0.968854 1.400253 -0.636106 174 162 148
0.974913 1.394474 -0.635211 173 161 147
0.979795 1.386908 -0.633682 175 163 149
0.985536 1.380718 -0.632627 172 161 146
0.990678 1.373657 -0.631257 169 160 144
0.996726 1.368003 -0.630376 170 161 146
1.003045 1.362771 -0.629638 171 162 147
1.009799 1.358189 -0.629124 172 163 148
1.015122 1.351526 -0.627865 171 162 147
1.021951 1.347062 -0.627382 169 160 145
1.02997 1.344283 -0.627495 171 162 147
1.035616 1.338117 -0.626395 170 159 145
1.037197 1.326312 -0.623263 160 151 136
1.042348 1.319564 -0.621934 154 147 132
1.041986 1.30532 -0.617896 149 143 129
1.044318 1.294899 -0.615217 152 146 132
1.053834 1.294195 -0.616042 152 146 131
1.06443 1.294831 -0.617354 157 150 134
1.065155 1.282397 -0.613918 158 151 135
1.067502 1.272209 -0.611283 157 150 134
1.079452 1.274461 -0.613177 156 149 136
1.085934 1.269596 -0.612473 157 151 137
1.088691 1.26002 -0.610036 157 151 136
1.095035 1.254997 -0.60926 156 151 133
1.102341 1.251147 -0.608912 160 149 132
1.104496 1.240957 -0.60622 160 148 130
1.106971 1.231238 -0.603688 159 148 130
1.113152 1.22604 -0.602821 157 150 132
1.121633 1.223559 -0.602959 157 150 134
1.129793 1.220632 -0.602931 159 150 134
1.13167 1.210327 -0.600147 160 151 137
1.135832 1.20274 -0.598367 159 150 136
1.137876 1.192765 -0.595684 160 151 138
1.144686 1.188256 -0.595043 160 153 140
1.154501 1.187079 -0.595655 159 154 141
1.162819 1.184147 -0.595608 158 156 141
1.16873 1.178514 -0.594539 160 158 144
1.172647 1.170706 -0.592641 160 158 145
1.177214 1.163633 -0.591015 167 165 152
1.183017 1.157902 -0.589895 168 166 153
1.190591 1.154036 -0.589484 171 169 156
1.197207 1.149136 -0.588678 174 172 158
1.20413 1.144539 -0.587987 175 173 158
1.210153 1.139004 -0.586936 178 176 161
1.216368 1.13367 -0.585961 177 175 160
1.22335 1.12911 -0.585284 180 178 163
1.22876 1.122983 -0.584002 181 178 163
1.235084 1.117784 -0.583079 181 178 163
1.241475 1.112668 -0.582189 183 180 165
1.247285 1.107011 -0.58109 183 180 165
1.254558 1.102793 -0.580555 183 180 165
1.261369 1.098153 -0.579858 183 180 165
1.267635 1.093035 -0.578978 184 181 166
1.273676 1.087758 -0.578038 184 181 166
1.279992 1.082794 -0.577225 185 182 167
1.285789 1.077421 -0.576254 183 180 165
1.290594 1.071232 -0.574962 184 181 166
1.297913 1.067395 -0.57461 184 181 166
1.30514 1.063546 -0.574261 185 182 165
1.309856 1.057571 -0.573067 185 182 165
1.316648 1.053528 -0.572652 184 181 164
1.32008 1.046687 -0.571118 185 182 166
1.324331 1.040704 -0.569931 185 182 165
1.329178 1.035376 -0.569011 184 181 164
1.336263 1.032074 -0.568918 185 182 165
-0.275314 1.5935 -0.520404 240 232 220
-0.266872 1.58578 -0.519527 240 232 220
-0.260186 1.587536 -0.520942 240 232 221
-0.255885 1.60278 -0.525628 240 232 221
-0.249725 1.609069 -0.528219 240 232 221
-0.24317 1.613981 -0.530522 239 231 220
-0.236982 1.621804 -0.533569 239 231 220
-0.229704 1.624059 -0.535309 238 230 219
-0.222653 1.628311 -0.537566 238 230 219
-0.216025 1.63594 -0.540681 238 230 219
-0.209184 1.643076 -0.543711 239 231 220
-0.202153 1.649792 -0.546672 239 230 219
-0.197071 1.670837 -0.55319 240 230 220
-0.189382 1.674952 -0.55558 240 230 220
-0.181623 1.679155 -0.558014 239 229 219
-0.175066 1.693208 -0.562917 238 228 218
-0.167703 1.702127 -0.566574 239 229 219
-0.160189 1.710722 -0.570174 238 228 218
-0.152047 1.714751 -0.572651 238 228 218
-0.144783 1.727253 -0.577273 237 227 217
-0.136759 1.733792 -0.580414 237 227 215
-0.12964 1.750061 -0.586034 235 225 213
-0.121339 1.755649 -0.588967 236 225 213
-0.114531 1.778366 -0.596279 236 224 212
-0.105976 1.78323 -0.599057 235 223 213
-0.097254 1.786557 -0.601446 233 223 213
-0.088691 1.792332 -0.604467 231 221 211
-0.080292 1.801111 -0.60827 230 220 210
-0.072495 1.820182 -0.614751 230 220 210
-0.063651 1.824968 -0.617541 230 220 210
-0.055046 1.834632 -0.621605 227 217 207
-0.046176 1.840725 -0.624744 226 216 206
-0.037801 1.85849 -0.63095 226 216 206
-0.028722 1.863146 -0.633723 224 214 204
-0.01964 1.868611 -0.636709 222 212 202
-0.01067 1.87882 -0.640954 219 209 199
-0.00164 1.889978 -0.645458 217 207 197
0.007561 1.897707 -0.649057 213 203 193
0.016768 1.90871 -0.653535 213 203 193
0.026092 1.917871 -0.657527 210 200 190
0.035471 1.929871 -0.662289 208 198 188
0.044966 1.938046 -0.666028 204 194 184
0.05453 1.947018 -0.669987 200 192 181
0.064142 1.951527 -0.67274 198 188 178
0.073816 1.958423 -0.676141 197 187 177
0.083568 1.966501 -0.679866 195 185 175
0.09342 1.975968 -0.683975 195 185 175
0.103258 1.98161 -0.687042 193 183 173
0.11314 1.987092 -0.690064 183 174 163
0.123019 1.991112 -0.692684 149 141 130
0.133 1.996795 -0.695762 121 113 102
0.143145 2.00494 -0.699524 137 129 118
0.153335 2.012443 -0.703113 165 157 146
0.16349 2.017985 -0.706159 167 161 149
0.174004 2.02867 -0.710643 110 103 89
0.184433 2.036399 -0.714309 163 156 140
0.194688 2.040478 -0.716954 176 170 154
0.204959 2.044183 -0.719494 172 166 150
0.215332 2.048681 -0.722257 159 152 136
0.225148 2.045892 -0.722959 157 148 133
0.235007 2.043806 -0.723851 155 146 129
0.244498 2.037889 -0.723646 154 145 127
0.253934 2.031903 -0.723407 155 143 125
0.263606 2.028677 -0.723945 156 145 128
0.273119 2.024155 -0.724104 157 145 129
0.282762 2.02108 -0.724667 159 147 131
0.29189 2.013741 -0.723995 160 149 131
0.301336 2.009487 -0.724201 161 149 133
0.310701 2.004804 -0.724273 162 150 136
0.319302 1.994542 -0.722717 164 152 138
0.328398 1.98852 -0.722377 163 151 137
0.337158 1.980414 -0.72142 164 152 138
0.346217 1.974779 -0.721171 165 153 139
0.355395 1.970177 -0.721214 165 153 139
0.364554 1.965624 -0.721265 165 153 139
0.373427 1.959443 -0.720828 166 154 140
0.382118 1.95241 -0.720131 165 153 139
0.391007 1.946823 -0.71985 166 154 140
0.399855 1.941195 -0.719548 166 154 140
0.40852 1.934737 -0.718992 166 154 140
0.416213 1.923259 -0.716933 162 150 136
0.425145 1.918771 -0.716942 144 132 120
0.434796 1.918067 -0.718077 55 43 31
0.444634 1.918217 -0.719466 142 130 118
0.450219 1.897521 -0.714595 131 119 107
0.457302 1.884814 -0.712101 141 129 117
0.464749 1.874277 -0.710245 165 153 139
0.472923 1.867399 -0.709482 138 126 114
0.483955 1.873388 -0.712609 99 87 75
0.491719 1.864823 -0.711325 89 77 65
0.497759 1.849197 -0.70788 165 153 139
0.503727 1.833818 -0.70449 167 155 141
0.511674 1.827013 -0.703703 169 157 143
0.520757 1.824906 -0.704348 170 158 144
0.530287 1.824515 -0.705519 170 158 144
0.539204 1.821684 -0.705939 171 159 145
0.546921 1.81435 -0.704968 170 158 144
0.554468 1.806558 -0.703847 169 157 144
0.562878 1.802071 -0.703741 170 158 146
0.570901 1.79627 -0.703223 171 159 147
0.577435 1.785392 -0.701118 170 158 146
0.584094 1.775227 -0.699223 171 159 145
0.592314 1.770558 -0.699035 171 159 145
0.600764 1.766709 -0.6991 170 158 144
0.609627 1.764232 -0.699593 170 158 144
0.616454 1.755245 -0.698035 171 159 145
0.623099 1.745888 -0.69635 171 159 146
0.630988 1.740574 -0.695933 170 158 147
0.638162 1.733166 -0.694848 169 158 146
0.645017 1.724949 -0.693498 169 158 146
0.651174 1.714848 -0.691539 169 158 146
0.658359 1.707937 -0.690586 169 157 143
0.665616 1.70135 -0.689731 169 158 144
0.673064 1.695407 -0.689074 170 158 144
0.680393 1.689222 -0.688335 169 157 143
0.687909 1.683638 -0.687783 170 158 145
0.694162 1.674745 -0.686158 169 157 145
0.701998 1.670199 -0.685929 169 157 145
0.70945 1.664694 -0.685386 169 157 144
0.714878 1.654071 -0.683174 168 157 144
0.722561 1.649356 -0.682874 168 157 144
0.730892 1.646299 -0.683112 168 157 144
0.74128 1.648294 -0.684999 168 157 144
0.741487 1.625476 -0.67876 169 157 144
0.747981 1.618219 -0.677603 169 158 144
0.754771 1.611769 -0.676703 169 157 144
0.759033 1.599522 -0.673884 169 157 143
0.764701 1.590742 -0.672196 169 157 143
0.771298 1.584215 -0.671245 169 157 143
0.777759 1.577466 -0.670214 168 157 142
0.784961 1.572443 -0.66975 168 156 142
0.789885 1.562498 -0.667639 168 156 141
0.797104 1.557662 -0.667224 168 156 141
0.807317 1.559222 -0.66895 167 156 141
0.813416 1.552031 -0.66774 167 156 141
0.819764 1.54545 -0.666728 167 155 141
0.824528 1.535702 -0.66464 166 154 139
0.831079 1.529722 -0.663815 166 154 140
0.835478 1.519504 -0.661547 169 157 143
0.844271 1.518122 -0.662267 168 156 142
0.85188 1.514378 -0.662185 168 156 142
0.858479 1.508693 -0.661437 168 156 142
0.864887 1.502695 -0.660576 169 157 143
0.870971 1.496141 -0.659518 168 156 142
0.878529 1.492398 -0.659418 168 156 142
0.884058 1.484924 -0.65803 168 156 142
0.891713 1.481403 -0.657998 167 155 141
0.899359 1.47786 -0.657955 169 157 143
0.902173 1.46572 -0.65493 168 156 142
0.907231 1.45771 -0.653323 169 157 143
0.913205 1.451386 -0.652293 169 157 143
0.918081 1.443227 -0.650616 170 158 144
0.924246 1.437353 -0.649727 170 158 144
0.932497 1.435027 -0.650076 171 159 145
0.94034 1.431988 -0.650173 171 159 145
0.946579 1.426284 -0.649329 171 159 145
0.952052 1.419369 -0.648052 172 160 146
0.957198 1.411982 -0.646599 172 160 144
0.963742 1.406891 -0.645951 172 160 144
0.969022 1.399825 -0.644596 171 159 144
0.974356 1.392897 -0.643281 171 159 144
0.980013 1.386523 -0.642155 171 159 143
0.986366 1.381251 -0.641417 169 157 141
0.992078 1.375027 -0.64033 168 157 140
0.996939 1.367563 -0.638791 166 156 139
1.003279 1.362346 -0.638052 167 158 142
1.008672 1.355751 -0.63681 169 160 144
1.015288 1.350969 -0.636215 169 160 145
1.021403 1.345467 -0.635354 170 159 145
1.03051 1.344229 -0.636036 168 157 143
1.038289 1.341047 -0.636011 161 151 136
1.04068 1.330324 -0.633232 150 140 126
1.038813 1.313843 -0.628333 152 145 131
1.034783 1.294639 -0.622411 150 144 130
1.03965 1.287734 -0.620978 153 147 133
1.050079 1.288303 -0.62229 155 148 133
1.060234 1.288392 -0.623427 157 150 134
1.05805 1.272196 -0.618546 158 151 135
1.065009 1.26808 -0.618118 158 150 137
1.079718 1.273896 -0.621377 159 151 138
1.076662 1.256885 -0.616149 158 150 136
1.086126 1.255869 -0.616866 157 150 134
1.086618 1.243571 -0.613364 163 138 124
1.085717 1.229683 -0.60925 179 113 105
1.090989 1.223501 -0.608011 180 116 103
1.095744 1.216702 -0.606533 179 117 104
1.106622 1.217259 -0.607824 181 118 105
1.107778 1.206152 -0.604707 174 128 112
1.113086 1.200026 -0.603465 173 129 114
1.124214 1.200674 -0.604791 172 134 119
1.129647 1.194632 -0.603575 169 142 126
1.13381 1.18714 -0.6018 167 143 128
1.137398 1.179028 -0.59978 166 146 130
1.150186 1.181243 -0.601712 162 149 133
1.160728 1.180812 -0.602636 158 149 133
1.16757 1.176212 -0.601959 158 151 135
1.171459 1.16838 -0.600032 157 152 138
1.177015 1.162375 -0.598806 156 151 137
1.183513 1.157374 -0.597965 158 153 139
1.190047 1.152396 -0.597131 157 154 139
1.196104 1.146906 -0.596096 158 155 140
1.202298 1.141554 -0.595113 159 156 141
1.209208 1.136932 -0.594416 163 160 145
1.216044 1.132222 -0.593683 165 162 147
1.222052 1.126673 -0.592622 169 166 151
1.228645 1.121718 -0.591793 170 167 152
1.234464 1.116007 -0.590667 174 171 156
1.239521 1.109579 -0.589256 176 173 158
1.247454 1.105971 -0.588965 177 174 159
1.254155 1.101183 -0.588208 180 177 162
1.260484 1.096068 -0.587324 178 175 160
1.265765 1.090013 -0.586065 178 175 160
1.273237 1.086056 -0.58565 180 177 162
1.280167 1.081635 -0.585053 180 177 161
1.2851 1.075447 -0.583748 182 179 162
1.289081 1.068494 -0.582134 181 178 162
1.296095 1.064367 -0.581667 182 179 163
1.304976 1.061966 -0.581908 183 180 163
1.311771 1.057786 -0.581432 183 180 163
1.315624 1.051141 -0.579955 182 179 164
1.320993 1.045947 -0.579072 182 179 165
1.322744 1.03779 -0.576975 182 179 162
1.329246 1.033842 -0.576609 183 180 163
1.328545 1.023971 -0.573798 182 179 162
-0.276072 1.58877 -0.526942 241 233 222
-0.268536 1.585784 -0.527194 241 233 221
-0.261878 1.587827 -0.528706 241 233 222
-0.256604 1.597941 -0.532228 240 232 221
-0.250375 1.603857 -0.534771 240 232 221
-0.243295 1.605815 -0.536385 240 232 221
-0.236714 1.611276 -0.538895 239 231 220
-0.231231 1.624042 -0.543249 238 230 219
-0.224187 1.628477 -0.545585 238 230 219
-0.217388 1.63516 -0.548513 238 230 219
-0.210191 1.640089 -0.551038 239 229 219
-0.203331 1.647967 -0.55433 240 230 220
-0.197479 1.663683 -0.55962 239 230 220
-0.190261 1.671055 -0.562853 239 229 219
-0.183036 1.679189 -0.566305 239 229 219
-0.175457 1.685485 -0.569318 237 227 217
-0.168265 1.695568 -0.573314 236 226 216
-0.160999 1.706048 -0.577438 237 227 217
-0.153925 1.719228 -0.582276 237 227 216
-0.145976 1.725811 -0.585449 236 226 214
-0.138573 1.738251 -0.590144 235 225 213
-0.130589 1.746211 -0.593706 235 225 213
-0.122078 1.749531 -0.596078 234 224 213
-0.114655 1.765133 -0.601649 233 223 212
-0.106764 1.777057 -0.606285 232 222 212
-0.098349 1.783921 -0.609613 232 222 212
-0.089716 1.788724 -0.612409 231 221 211
-0.082085 1.808063 -0.619035 230 220 210
-0.073813 1.820476 -0.623859 229 219 209
-0.065057 1.826851 -0.627097 229 219 209
-0.056393 1.835697 -0.630996 227 217 207
-0.047376 1.839199 -0.633477 226 216 206
-0.03841 1.84421 -0.63636 225 215 205
-0.029944 1.861895 -0.642644 222 212 202
-0.020953 1.869772 -0.646308 222 212 202
-0.011849 1.876129 -0.649568 219 209 199
-0.002776 1.88535 -0.653603 215 205 195
0.006307 1.897452 -0.658428 213 203 193
0.015484 1.910181 -0.663434 210 200 190
0.024862 1.915993 -0.666562 209 199 189
0.034238 1.927493 -0.671248 206 196 186
0.043724 1.936195 -0.675175 204 194 184
0.053279 1.942119 -0.678343 200 191 180
0.062883 1.948208 -0.681556 197 187 177
0.07253 1.95358 -0.684572 194 185 175
0.082295 1.96373 -0.688915 193 183 173
0.092123 1.972523 -0.692887 193 183 173
0.101985 1.979527 -0.696366 190 180 170
0.111867 1.985128 -0.699454 180 171 161
0.121754 1.989453 -0.702185 150 142 131
0.13168 1.993786 -0.704918 119 111 100
0.141807 2.001748 -0.708674 132 125 113
0.152027 2.010053 -0.712532 163 157 145
0.162164 2.015347 -0.715542 151 145 133
0.172579 2.024491 -0.719648 60 52 40
0.182707 2.027717 -0.722074 156 149 135
0.193108 2.034424 -0.725494 176 170 155
0.203863 2.045026 -0.730034 171 165 151
0.213954 2.045741 -0.731744 157 150 134
0.223897 2.044516 -0.732891 155 146 129
0.233632 2.040957 -0.733358 154 143 126
0.243141 2.035225 -0.733185 152 141 123
0.252689 2.030378 -0.733258 153 142 124
0.262456 2.028027 -0.734045 153 142 124
0.272434 2.027769 -0.735435 154 143 125
0.281337 2.017781 -0.733978 156 145 127
0.290831 2.013596 -0.734203 157 146 128
0.300116 2.007909 -0.733979 159 147 130
0.3092 2.000945 -0.733368 159 147 132
0.31821 1.993819 -0.732697 160 148 134
0.326765 1.983737 -0.731139 162 150 136
0.335993 1.979011 -0.731153 162 150 136
0.345134 1.973886 -0.73104 163 151 137
0.354373 1.969618 -0.731173 164 152 138
0.363205 1.962881 -0.730562 164 152 138
0.371955 1.955927 -0.729876 164 152 138
0.380715 1.949323 -0.729283 165 153 139
0.389719 1.94441 -0.729189 165 153 140
0.398897 1.940647 -0.729435 166 154 140
0.407912 1.936059 -0.729425 166 154 140
0.415647 1.92468 -0.727353 163 151 139
0.423839 1.916173 -0.726137 147 135 123
0.433413 1.915075 -0.727161 87 75 63
0.442262 1.910286 -0.72706 131 119 107
0.447917 1.890018 -0.722224 100 87 76
0.456664 1.885329 -0.722131 116 105 93
0.464344 1.875782 -0.72054 143 133 119
0.471037 1.862062 -0.717655 143 134 120
0.479683 1.857521 -0.71758 126 116 104
0.489417 1.857793 -0.718987 81 71 59
0.49701 1.848835 -0.717537 159 149 135
0.502983 1.833401 -0.714068 164 155 140
0.510723 1.8257 -0.712983 169 157 143
0.520027 1.824439 -0.713896 170 158 144
0.529471 1.823664 -0.714961 170 158 145
0.538404 1.820853 -0.71539 170 158 146
0.54681 1.81606 -0.715194 169 157 143
0.554532 1.808817 -0.714223 169 157 144
0.562122 1.801263 -0.713147 170 158 146
0.570269 1.795859 -0.712741 170 158 146
0.57825 1.789968 -0.712175 170 158 146
0.585354 1.781183 -0.710685 169 157 145
0.591536 1.769504 -0.708265 170 158 144
0.600423 1.767063 -0.708775 169 157 143
0.608538 1.762099 -0.708479 169 157 143
0.61679 1.75764 -0.708339 170 158 144
0.622425 1.745017 -0.705577 170 158 146
0.629605 1.73748 -0.704435 170 158 146
0.637298 1.731649 -0.703834 170 158 146
0.64479 1.725304 -0.703063 169 157 145
0.651718 1.71741 -0.701783 169 157 145
0.658252 1.708529 -0.700174 169 158 144
0.665519 1.701913 -0.699293 169 158 146
0.672609 1.694912 -0.698279 169 157 144
0.680247 1.68954 -0.69779 168 156 142
0.686175 1.679588 -0.695797 169 157 143
0.69332 1.673099 -0.694929 168 156 143
0.700879 1.667801 -0.694446 168 156 143
0.708264 1.662116 -0.693831 167 156 142
0.715349 1.655731 -0.692979 167 156 142
0.72149 1.647055 -0.691363 167 156 142
0.730618 1.645976 -0.692257 167 156 142
0.744982 1.657704 -0.697411 167 156 142
0.751474 1.649945 -0.696092 167 156 142
0.753487 1.631604 -0.69123 168 156 142
0.764899 1.635831 -0.693899 168 156 142
0.771212 1.627998 -0.69253 168 156 142
0.773604 1.611283 -0.688167 168 156 142
0.776117 1.595193 -0.683993 168 156 142
0.787852 1.60006 -0.686875 167 155 141
0.794964 1.594511 -0.686242 167 155 141
0.788564 1.559574 -0.675634 167 155 141
0.797813 1.559108 -0.676697 167 155 141
0.806485 1.557342 -0.677318 166 155 140
0.81404 1.553195 -0.677127 166 155 141
0.818793 1.543261 -0.674952 166 154 140
0.82509 1.536646 -0.673904 165 153 139
0.832697 1.532759 -0.673785 165 153 138
0.837902 1.524084 -0.672014 167 155 140
0.846278 1.52179 -0.672437 168 156 142
0.853158 1.516551 -0.671839 169 157 143
0.859011 1.509373 -0.670564 168 156 142
0.865117 1.502761 -0.669477 168 156 142
0.87227 1.49819 -0.669094 169 157 143
0.876908 1.488962 -0.66708 167 155 141
0.882823 1.482208 -0.665921 165 153 139
0.891043 1.479718 -0.66625 165 153 137
0.898811 1.476384 -0.666281 167 155 140
0.905504 1.471131 -0.665634 169 157 143
0.908279 1.459023 -0.66256 170 158 144
0.91483 1.453662 -0.661858 169 157 143
0.918432 1.443263 -0.659363 170 158 144
0.924347 1.436938 -0.658302 170 158 144
0.93221 1.433939 -0.65842 171 159 145
0.939432 1.429853 -0.658148 171 159 145
0.945772 1.424314 -0.657352 171 159 145
0.951144 1.417231 -0.655995 171 159 143
0.957648 1.412033 -0.655308 171 159 143
0.963909 1.406468 -0.654483 171 159 143
0.970638 1.401667 -0.653928 170 158 142
0.974593 1.392548 -0.651805 171 159 143
0.980442 1.386453 -0.650767 169 157 141
0.986843 1.381233 -0.65004 169 157 141
0.99253 1.374949 -0.64892 168 157 140
0.997604 1.367784 -0.647471 167 157 140
1.002936 1.361053 -0.646171 166 157 140
1.009091 1.355569 -0.645321 167 158 141
1.015184 1.350009 -0.644437 167 158 143
1.024123 1.34855 -0.645059 167 156 142
1.028906 1.341115 -0.643474 162 150 136
1.034585 1.334992 -0.642365 147 138 123
1.035605 1.322405 -0.63885 152 144 131
1.026526 1.296057 -0.630199 150 144 130
1.027489 1.283831 -0.626772 153 147 133
1.035767 1.281622 -0.62707 154 148 134
1.044713 1.280249 -0.627681 155 149 134
1.051975 1.276568 -0.627426 157 149 134
1.058057 1.271308 -0.626575 159 151 138
1.065305 1.267558 -0.626288 160 152 139
1.069663 1.260062 -0.624583 158 150 137
1.076707 1.256019 -0.624176 156 149 133
1.079302 1.246345 -0.621629 153 144 127
1.076734 1.230316 -0.616651 167 115 104
1.070962 1.210537 -0.61022 189 93 88
1.082923 1.2127 -0.612145 191 90 83
1.08506 1.202825 -0.609467 189 89 81
1.08568 1.191212 -0.606108 191 93 84
1.086777 1.180279 -0.602995 190 91 82
1.091666 1.173898 -0.601624 190 91 84
1.098368 1.169637 -0.601066 190 94 87
1.11034 1.17141 -0.602844 187 95 88
1.11605 1.165894 -0.6018 188 98 90
1.12433 1.16327 -0.601877 183 103 93
1.136855 1.165323 -0.603781 179 107 94
1.150636 1.168609 -0.606176 178 111 98
1.159699 1.166543 -0.606487 174 122 109
1.170002 1.165744 -0.607298 172 128 116
1.17569 1.159888 -0.606122 170 130 119
1.182711 1.155447 -0.605502 165 140 125
1.189764 1.151012 -0.604884 165 145 127
1.194137 1.143758 -0.603147 159 147 129
1.199789 1.137854 -0.601942 161 150 132
1.208512 1.135097 -0.601989 162 151 135
1.214248 1.129267 -0.600812 159 152 135
1.220067 1.123532 -0.599671 159 151 134
1.226696 1.118617 -0.598858 163 154 137
1.232409 1.112804 -0.597685 163 155 140
1.237699 1.106607 -0.596357 164 154 138
1.24153 1.099043 -0.594473 163 157 140
1.254063 1.099854 -0.595984 166 155 139
1.258857 1.09327 -0.594501 166 159 144
1.264831 1.087857 -0.593494 170 167 152
1.271073 1.082743 -0.592611 171 168 153
1.28035 1.080471 -0.592895 173 170 154
1.283882 1.072982 -0.591045 175 172 155
1.286758 1.06502 -0.588996 176 173 156
1.294121 1.061195 -0.588654 176 173 156
1.302439 1.05828 -0.588694 177 174 157
1.30831 1.05328 -0.587876 178 175 159
1.313481 1.047778 -0.586852 177 174 159
1.317952 1.041796 -0.585629 178 175 160
1.324818 1.037997 -0.58532 179 176 159
1.328722 1.031805 -0.584011 179 176 159
1.338471 1.030668 -0.584832 178 175 158
-0.275427 1.577086 -0.531742 240 232 221
-0.269929 1.584378 -0.534537 240 232 221
-0.264414 1.592482 -0.53758 240 232 221
-0.25786 1.595979 -0.539523 240 232 221
-0.251134 1.599255 -0.541449 240 232 221
-0.244522 1.603863 -0.543747 240 232 221
-0.237828 1.608751 -0.546153 239 231 220
-0.232049 1.619786 -0.550143 238 230 219
-0.225843 1.629319 -0.553797 238 230 219
-0.218331 1.631693 -0.555678 238 230 219
-0.211115 1.636526 -0.55821 240 230 220
-0.205091 1.649958 -0.562963 239 229 219
-0.198403 1.660068 -0.566906 238 228 218
-0.190988 1.666031 -0.569818 239 229 219
-0.183927 1.6753 -0.573606 238 228 218
-0.176688 1.684151 -0.577312 237 228 218
-0.170126 1.699253 -0.582662 235 227 216
-0.161823 1.701428 -0.584688 237 227 217
-0.154694 1.714009 -0.589436 236 226 216
-0.148032 1.731992 -0.595621 235 225 214
-0.139924 1.738171 -0.598745 235 225 214
-0.131508 1.741968 -0.601253 234 224 214
-0.123406 1.749421 -0.604734 234 224 214
-0.115427 1.758996 -0.608787 233 223 213
-0.107603 1.771392 -0.613605 232 222 212
-0.099541 1.782312 -0.618047 231 221 211
-0.090923 1.787308 -0.620919 230 220 210
-0.082589 1.7968 -0.625001 229 219 209
-0.074003 1.803773 -0.628415 229 219 209
-0.066004 1.821053 -0.634616 228 218 208
-0.057463 1.83165 -0.63903 226 216 206
-0.048588 1.837604 -0.642195 224 214 204
-0.039643 1.843048 -0.645222 224 214 204
-0.030901 1.854138 -0.649793 222 212 202
-0.022241 1.869839 -0.655637 220 210 200
-0.013197 1.878172 -0.659474 217 207 197
-0.004156 1.888997 -0.664003 215 205 195
0.005181 1.891109 -0.666133 212 202 192
0.014209 1.910249 -0.672977 209 199 189
0.023578 1.917183 -0.67645 207 197 187
0.032985 1.926023 -0.680457 205 195 185
0.042474 1.933089 -0.683974 203 193 183
0.05202 1.939176 -0.687219 199 189 179
0.061615 1.945065 -0.69041 195 186 175
0.071279 1.953059 -0.694195 191 182 171
0.081029 1.962153 -0.698295 191 181 171
0.090852 1.97086 -0.702292 189 179 169
0.100708 1.977708 -0.705766 186 176 166
0.110595 1.98357 -0.708962 178 169 158
0.120396 1.985403 -0.71101 147 139 127
0.130288 1.989164 -0.713605 95 87 77
0.140435 1.99798 -0.71765 118 112 100
0.150465 2.002646 -0.720508 164 158 146
0.160859 2.013289 -0.725091 38 32 20
0.171084 2.019246 -0.728328 49 42 30
0.181548 2.028051 -0.732393 158 151 138
0.190883 2.018929 -0.731254 172 166 152
0.202282 2.03936 -0.73871 169 163 148
0.212398 2.040619 -0.740589 154 146 130
0.222463 2.041027 -0.742216 149 140 122
0.232254 2.038151 -0.742874 148 137 119
0.241791 2.032732 -0.742775 147 136 118
0.251418 2.028671 -0.743065 148 137 119
0.261359 2.027997 -0.744347 149 138 120
0.270899 2.023499 -0.744491 150 139 121
0.280156 2.016745 -0.743955 153 142 124
0.289411 2.01042 -0.743534 152 142 124
0.298812 2.005697 -0.743579 154 144 128
0.307829 1.998168 -0.742776 155 143 129
0.316439 1.987955 -0.741154 156 146 131
0.325371 1.980739 -0.740417 159 147 133
0.334663 1.976473 -0.740557 160 148 134
0.344069 1.973158 -0.740977 161 149 134
0.353091 1.967376 -0.740644 162 150 136
0.361832 1.960019 -0.739823 162 150 136
0.370499 1.952534 -0.738953 162 150 136
0.379467 1.947197 -0.738726 162 150 137
0.388389 1.941775 -0.738465 163 151 138
0.397796 1.939311 -0.739102 165 153 139
0.406807 1.934657 -0.739063 165 153 141
0.414128 1.920973 -0.736238 162 150 137
0.422991 1.916021 -0.736087 149 137 125
0.432166 1.912799 -0.736465 97 85 73
0.441248 1.909156 -0.736709 130 119 107
0.446818 1.888396 -0.731632 80 69 59
0.45656 1.88842 -0.732996 46 36 25
0.463927 1.877259 -0.730871 61 52 39
0.470309 1.862005 -0.727452 57 47 36
0.478444 1.855121 -0.726636 40 30 18
0.488066 1.854896 -0.727903 72 62 50
0.496041 1.847554 -0.726931 158 148 134
0.501557 1.830163 -0.722779 163 154 139
0.509781 1.824434 -0.722293 167 156 143
0.519114 1.823255 -0.723242 169 157 144
0.528517 1.822285 -0.724257 169 157 145
0.537793 1.820759 -0.725096 169 157 145
0.54631 1.816323 -0.725006 169 157 145
0.554187 1.809584 -0.724176 169 157 145
0.561582 1.80125 -0.722828 169 157 145
0.56937 1.794511 -0.721983 168 156 144
0.577544 1.78926 -0.721609 167 157 145
0.585316 1.782712 -0.720812 166 157 144
0.592963 1.775873 -0.719914 169 157 143
0.599836 1.766613 -0.718224 169 157 143
0.607649 1.76062 -0.717585 169 157 144
0.61532 1.754279 -0.716826 169 157 145
0.622849 1.7476 -0.715951 169 157 145
0.628188 1.734284 -0.7129 170 158 146
0.636138 1.729233 -0.71254 169 157 145
0.644077 1.724213 -0.712186 170 158 146
0.652124 1.719574 -0.711953 169 158 145
0.658382 1.709809 -0.710026 166 157 143
0.66591 1.703869 -0.709352 167 156 144
0.671606 1.69288 -0.706999 167 155 141
0.678679 1.685935 -0.705976 167 156 142
0.686884 1.682181 -0.706008 167 155 141
0.692162 1.670606 -0.70343 166 154 140
0.699946 1.665894 -0.703131 167 155 142
0.708496 1.663222 -0.703512 166 155 141
0.713122 1.650475 -0.70051 166 154 141
0.720415 1.644742 -0.699851 166 155 141
0.72835 1.64068 -0.699752 166 154 141
0.750776 1.672258 -0.711695 166 154 140
0.753088 1.654127 -0.70685 166 155 141
0.749594 1.622519 -0.697407 167 155 141
0.757519 1.618609 -0.697343 167 155 141
0.771257 1.628243 -0.701895 167 155 141
0.777022 1.619228 -0.700091 167 155 141
0.768657 1.578352 -0.687363 166 155 141
0.782903 1.589015 -0.69227 166 155 140
0.792719 1.58954 -0.693708 165 154 140
0.789765 1.562141 -0.68552 165 155 140
0.797736 1.558858 -0.685629 166 154 140
0.805301 1.554709 -0.685436 165 154 140
0.8108 1.546248 -0.683742 165 155 140
0.82232 1.550386 -0.686422 166 154 140
0.825967 1.538228 -0.683429 165 153 139
0.831176 1.529441 -0.681599 166 154 140
0.839291 1.526586 -0.681836 166 154 140
0.846103 1.521146 -0.681164 167 155 141
0.853874 1.51762 -0.68116 168 156 142
0.859793 1.510527 -0.679896 167 155 141
0.864734 1.501652 -0.677994 167 155 141
0.871927 1.49714 -0.677626 168 156 142
0.878684 1.491837 -0.676973 166 154 140
0.88393 1.483795 -0.675341 166 154 139
0.889974 1.477299 -0.674251 167 155 139
0.897219 1.473027 -0.673947 167 156 139
0.903878 1.467722 -0.673271 169 157 143
0.910163 1.461795 -0.672365 170 158 144
0.915345 1.453998 -0.67078 170 158 144
0.918149 1.442199 -0.667742 170 158 144
0.924411 1.436451 -0.666875 170 158 144
0.931878 1.432765 -0.666749 170 158 144
0.938366 1.427446 -0.666028 170 158 144
0.945151 1.422641 -0.665488 170 158 144
0.952449 1.418686 -0.665253 170 158 143
0.957594 1.411261 -0.663746 168 156 140
0.964338 1.406449 -0.663187 165 153 137
0.970859 1.401296 -0.662499 164 152 136
0.976864 1.395357 -0.661515 169 157 141
0.980585 1.385927 -0.659238 168 156 140
0.98727 1.381124 -0.658658 168 157 141
0.996904 1.380783 -0.659727 166 157 140
0.998818 1.368812 -0.65648 167 157 141
1.005123 1.363489 -0.655691 166 157 141
1.010228 1.356422 -0.654245 167 157 140
1.015895 1.350215 -0.653112 167 157 143
1.023476 1.346783 -0.653012 163 153 138
1.031354 1.343742 -0.653057 151 140 126
1.033637 1.3328 -0.650126 149 140 126
1.034861 1.320504 -0.646668 153 145 132
1.024791 1.292805 -0.637368 153 145 132
1.02531 1.279991 -0.633666 155 147 134
1.033183 1.277255 -0.633775 155 149 135
1.0438 1.278135 -0.635259 155 149 135
1.050591 1.273834 -0.634771 156 149 135
1.057793 1.270049 -0.634478 158 150 137
1.065349 1.266692 -0.634346 157 149 136
1.070742 1.260515 -0.633129 156 149 134
1.074552 1.25234 -0.631136 155 148 132
1.075633 1.240784 -0.627827 154 137 122
1.068158 1.218689 -0.620424 172 109 99
1.052969 1.187409 -0.609424 193 90 83
1.059058 1.182609 -0.608667 194 87 78
1.068423 1.181753 -0.609443 194 87 78
1.076809 1.179631 -0.609727 193 86 78
1.077864 1.16875 -0.606584 194 87 78
1.08279 1.162511 -0.605248 192 86 78
1.088211 1.156854 -0.604135 192 87 78
1.093153 1.150644 -0.602799 189 85 77
1.104404 1.151626 -0.6043 190 86 78
1.113144 1.149641 -0.604633 189 86 75
1.117078 1.142213 -0.602808 188 86 74
1.124436 1.1386 -0.602494 188 88 76
1.130519 1.133546 -0.601605 188 88 78
1.137675 1.129638 -0.601172 186 87 78
1.148549 1.129683 -0.602323 187 92 84
1.153385 1.123197 -0.600858 186 93 84
1.163056 1.121812 -0.601443 180 94 83
1.181973 1.129973 -0.605888 179 102 92
1.195091 1.131884 -0.607828 180 106 97
1.184288 1.10922 -0.599811 180 108 98
1.207394 1.121184 -0.605842 173 117 103
1.213849 1.11614 -0.604972 173 118 104
1.221215 1.112 -0.604472 173 126 111
1.228565 1.107833 -0.603963 175 123 109
1.232122 1.099972 -0.601939 176 110 99
1.223838 1.080785 -0.595245 175 109 97
1.232361 1.077914 -0.59526 172 99 91
1.260105 1.093174 -0.602787 165 131 118
1.263124 1.084965 -0.600618 156 153 137
1.272356 1.082613 -0.600881 157 154 139
1.277171 1.07621 -0.599462 157 154 139
1.281515 1.069465 -0.597899 159 156 140
1.285626 1.062612 -0.596288 159 156 139
1.293006 1.058783 -0.595948 163 160 143
1.299314 1.054071 -0.595241 165 162 146
1.305421 1.049274 -0.5945 167 163 150
1.310155 1.043388 -0.593299 167 164 150
1.316866 1.039328 -0.592875 170 167 153
1.321802 1.033862 -0.591855 173 169 155
1.327941 1.029549 -0.591328 173 170 154
1.334646 1.025834 -0.59106 173 170 154
-0.278277 1.582824 -0.540843 240 232 221
-0.27182 1.58549 -0.542527 240 232 221
-0.265477 1.589426 -0.544571 240 232 221
-0.259164 1.59426 -0.546884 240 232 221
-0.252614 1.598582 -0.549106 239 231 220
-0.245552 1.60079 -0.550828 240 232 221
-0.23968 1.61042 -0.554481 239 231 220
-0.232895 1.615693 -0.55706 238 230 219
-0.226751 1.625585 -0.560861 239 230 220
-0.21978 1.631349 -0.563636 239 230 219
-0.212608 1.636576 -0.566304 239 229 219
-0.206408 1.648921 -0.570848 239 230 219
-0.199641 1.658551 -0.574723 238 229 219
-0.192123 1.663845 -0.577497 238 229 218
-0.184372 1.668092 -0.580018 238 228 218
-0.176991 1.675695 -0.58344 236 228 217
-0.170924 1.694421 -0.589818 237 227 217
-0.163228 1.701495 -0.593152 237 227 217
-0.156357 1.716339 -0.598567 237 227 217
-0.148626 1.724944 -0.602349 236 226 216
-0.141103 1.736342 -0.606895 236 226 216
-0.132675 1.740046 -0.6094 235 225 215
-0.12469 1.748691 -0.613239 233 223 213
-0.116483 1.755832 -0.616686 232 222 212
-0.109037 1.772419 -0.622698 231 221 211
-0.100877 1.782264 -0.626906 231 221 211
-0.092211 1.786764 -0.629671 229 219 209
-0.083845 1.795844 -0.633689 229 219 209
-0.075919 1.812551 -0.639805 228 218 208
-0.067116 1.817756 -0.642784 227 217 207
-0.058376 1.824704 -0.646246 225 215 205
-0.049783 1.835448 -0.65076 226 216 206
-0.040837 1.84077 -0.653782 225 215 205
-0.032047 1.850571 -0.658051 220 210 200
-0.023444 1.867289 -0.664256 219 209 199
-0.014398 1.875317 -0.66805 216 206 196
-0.005334 1.884969 -0.672305 214 204 194
0.003893 1.891145 -0.675589 210 200 190
0.012964 1.9079 -0.681859 209 199 189
0.022339 1.913985 -0.685129 207 197 187
0.031741 1.92225 -0.689019 203 193 183
0.04122 1.928679 -0.692392 201 191 181
0.05075 1.935245 -0.695806 197 187 177
0.060344 1.943723 -0.699769 193 183 173
0.07 1.951043 -0.703405 188 178 166
0.079755 1.960819 -0.707751 186 176 165
0.089573 1.969369 -0.711751 184 174 163
0.09941 1.975526 -0.715066 181 171 160
0.109247 1.979789 -0.717834 174 166 154
0.119031 1.981393 -0.719829 150 143 131
0.128877 1.984251 -0.722185 58 51 40
0.139175 1.996983 -0.727422 61 55 43
0.149213 2.001776 -0.730348 34 27 16
0.159197 2.004654 -0.732713 88 82 70
0.169899 2.019477 -0.738591 157 151 138
0.180223 2.025948 -0.742021 161 155 140
0.190629 2.032654 -0.745526 162 156 140
0.200621 2.032656 -0.747048 159 150 133
0.21064 2.032932 -0.748647 138 124 106
0.220866 2.035634 -0.750964 133 117 98
0.230828 2.034883 -0.75225 131 117 98
0.240444 2.030336 -0.752395 134 120 102
0.25012 2.026773 -0.752824 137 122 103
0.259898 2.02446 -0.753621 141 127 108
0.269449 2.020097 -0.753793 143 131 112
0.278681 2.013126 -0.753167 145 133 116
0.287992 2.007302 -0.752876 147 136 119
0.297453 2.003083 -0.753062 148 137 121
0.306166 1.993095 -0.751484 149 138 122
0.315216 1.986334 -0.750874 151 140 124
0.324056 1.978372 -0.749885 153 142 125
0.333199 1.973017 -0.749682 156 144 129
0.342585 1.969587 -0.750062 157 145 129
0.351621 1.963912 -0.749744 159 147 131
0.360618 1.958219 -0.749412 157 147 131
0.36945 1.95172 -0.748821 159 148 133
0.37781 1.942611 -0.747412 160 147 134
0.386947 1.9385 -0.747543 161 149 137
0.396015 1.934106 -0.747579 161 151 136
0.405343 1.931279 -0.748098 163 151 137
0.413613 1.922733 -0.746824 161 149 135
0.421519 1.912589 -0.745037 151 139 126
0.430902 1.910454 -0.745753 93 81 69
0.441382 1.913813 -0.748198 115 104 92
0.44692 1.892677 -0.742915 73 63 51
0.454485 1.882125 -0.740952 93 84 70
0.462314 1.873178 -0.739484 144 135 120
0.468495 1.857013 -0.73571 142 133 118
0.477659 1.854758 -0.736346 136 126 112
0.487225 1.854231 -0.737532 76 66 52
0.494514 1.843908 -0.735584 155 146 131
0.500415 1.828118 -0.73187 161 152 137
0.508533 1.821929 -0.731221 165 156 141
0.517844 1.820653 -0.732147 165 156 142
0.527362 1.820131 -0.733318 166 156 142
0.536227 1.817007 -0.733647 169 157 145
0.544832 1.812914 -0.73366 168 156 144
0.552768 1.806397 -0.732883 166 155 143
0.560413 1.798964 -0.731799 166 155 143
0.568308 1.79259 -0.731054 168 156 144
0.576134 1.7861 -0.730263 166 156 144
0.58407 1.780115 -0.729632 166 157 144
0.592401 1.775567 -0.729467 168 157 142
0.599456 1.766854 -0.727926 168 156 143
0.606589 1.758592 -0.726524 169 157 145
0.614283 1.752301 -0.725766 168 156 144
0.621728 1.74534 -0.724779 169 157 145
0.628374 1.736042 -0.723008 169 157 145
0.634492 1.725343 -0.72076 168 156 144
0.643296 1.722922 -0.721262 168 156 143
0.651116 1.717587 -0.720789 168 157 143
0.658535 1.711161 -0.719946 166 157 142
0.664251 1.69999 -0.717502 166 156 144
0.670878 1.691621 -0.715988 167 155 141
0.67784 1.684338 -0.714832 167 155 141
0.68622 1.681041 -0.715016 167 155 141
0.692158 1.671204 -0.712982 165 153 139
0.699206 1.664497 -0.711999 166 154 140
0.706066 1.657403 -0.710878 165 154 140
0.714336 1.65404 -0.711023 165 154 140
0.720667 1.645782 -0.709492 165 154 140
0.729305 1.643417 -0.709972 165 154 139
0.749285 1.668909 -0.720021 165 154 139
0.739189 1.620702 -0.70474 165 154 139
0.748947 1.621192 -0.70619 165 154 140
0.756081 1.615397 -0.705472 165 154 140
0.759446 1.600897 -0.701731 166 154 140
0.766018 1.594061 -0.700633 166 154 140
0.774205 1.590977 -0.700834 165 154 140
0.781776 1.586514 -0.700552 165 154 139
0.787641 1.578315 -0.698961 164 154 139
0.789448 1.561399 -0.694305 164 154 139
0.794521 1.551853 -0.692215 164 154 139
0.802433 1.548495 -0.692292 165 154 139
0.809536 1.543441 -0.691769 165 154 140
0.817421 1.54005 -0.691828 166 154 140
0.824878 1.535783 -0.691576 165 153 139
0.832068 1.530998 -0.691136 165 153 138
0.836149 1.520035 -0.688493 166 154 139
0.844697 1.518067 -0.689044 167 155 141
0.852339 1.514294 -0.688951 168 156 142
0.859356 1.509324 -0.688426 167 155 141
0.864113 1.500086 -0.686363 167 154 141
0.871188 1.49534 -0.685905 167 154 141
0.880644 1.495047 -0.687051 168 155 142
0.884424 1.484242 -0.684397 168 155 139
0.88975 1.476411 -0.682807 168 156 140
0.894528 1.467686 -0.680883 168 156 141
0.901679 1.463288 -0.680524 168 156 142
0.909814 1.460634 -0.680797 169 157 143
0.916152 1.454829 -0.679917 170 158 144
0.91873 1.442611 -0.676679 170 158 144
0.924094 1.435306 -0.67523 169 157 143
0.931076 1.430793 -0.6748 169 157 143
0.93994 1.429417 -0.675524 169 157 142
0.947877 1.42646 -0.675664 168 156 142
0.952858 1.418671 -0.674012 168 156 142
0.957351 1.410173 -0.672086 168 156 141
0.963655 1.404648 -0.671256 166 154 138
0.971258 1.401195 -0.671194 162 150 134
0.976702 1.394361 -0.669865 166 154 137
0.98127 1.386226 -0.66804 169 157 141
0.987336 1.380453 -0.667093 168 157 141
0.994905 1.376976 -0.667003 168 156 140
0.999845 1.369547 -0.66542 168 157 141
1.005224 1.362825 -0.664096 166 156 141
1.010078 1.355377 -0.662488 168 156 141
1.016144 1.349739 -0.661559 167 154 141
1.023249 1.345606 -0.661197 157 145 132
1.031356 1.34288 -0.661369 146 136 124
1.037754 1.337708 -0.660605 152 144 131
1.029995 1.312862 -0.652288 151 144 131
1.018052 1.282656 -0.641872 154 147 134
1.024827 1.278453 -0.641427 155 148 134
1.03219 1.275023 -0.641277 155 149 135
1.041114 1.273643 -0.641918 156 149 136
1.049877 1.271973 -0.642449 154 148 134
1.054439 1.264733 -0.640815 156 149 135
1.062235 1.261719 -0.64082 158 150 137
1.068195 1.256302 -0.639886 156 148 135
1.070057 1.245679 -0.636907 155 147 133
1.069358 1.231938 -0.632691 154 133 118
1.055847 1.202415 -0.622245 176 104 97
1.043696 1.17504 -0.612598 194 90 82
1.046963 1.166904 -0.610509 196 90 77
1.04958 1.158032 -0.60812 194 88 75
1.056546 1.154427 -0.607811 193 87 75
1.064567 1.152029 -0.607981 193 85 74
1.074092 1.151329 -0.60883 192 84 75
1.078623 1.144734 -0.607326 192 85 77
1.085485 1.140832 -0.606895 191 85 76
1.094566 1.139418 -0.607463 191 84 76
1.101892 1.135941 -0.607203 190 83 73
1.105798 1.128599 -0.605384 191 84 74
1.113047 1.12498 -0.605064 190 83 73
1.12174 1.122896 -0.605367 190 84 74
1.131555 1.121952 -0.606137 189 84 74
1.139122 1.118502 -0.605892 190 85 75
1.144464 1.112644 -0.604664 188 83 72
1.150179 1.107181 -0.603594 185 82 71
1.155196 1.100988 -0.602222 185 84 73
1.171907 1.106857 -0.605814 185 85 74
1.174231 1.097825 -0.603275 182 83 72
1.184174 1.096563 -0.603944 184 84 72
1.192723 1.093831 -0.60401 181 85 73
1.195724 1.085561 -0.601778 181 84 74
1.21132 1.08971 -0.604717 179 81 71
1.209139 1.07643 -0.600389 179 82 71
1.215494 1.071534 -0.599559 182 83 73
1.223355 1.06809 -0.59934 180 85 74
1.255641 1.087673 -0.608828 174 116 102
1.267295 1.08755 -0.610046 156 150 130
1.272331 1.081255 -0.608663 154 150 135
1.275759 1.073561 -0.606684 156 153 138
1.277767 1.064688 -0.604198 155 152 136
1.283101 1.058943 -0.603041 153 150 133
1.276208 1.042404 -0.597261 162 159 142
1.280713 1.036215 -0.595899 185 182 167
1.285693 1.020702 -0.591817 184 180 168
1.311232 1.032954 -0.598431 174 170 158
1.319109 1.030002 -0.598485 170 166 154
1.321261 1.022319 -0.596483 167 163 151
1.314985 1.007778 -0.591478 167 163 151
-0.279706 1.581475 -0.548207 240 232 221
-0.272945 1.582694 -0.549547 240 232 221
-0.266315 1.585213 -0.551259 241 233 222
-0.260135 1.590766 -0.553793 240 232 221
-0.253315 1.593665 -0.55568 239 231 220
-0.247628 1.603498 -0.559404 240 232 221
-0.240889 1.608361 -0.561876 239 231 220
-0.234091 1.613623 -0.564488 239 231 220
-0.22791 1.623329 -0.568298 239 230 220
-0.220555 1.626772 -0.5705 239 229 219
-0.213868 1.635068 -0.574008 238 230 219
-0.207505 1.646368 -0.578343 238 229 218
-0.201532 1.661389 -0.583701 238 229 218
-0.193466 1.663057 -0.585545 237 228 218
-0.185561 1.666279 -0.587819 237 228 218
-0.177876 1.671619 -0.590678 236 228 217
-0.170755 1.681979 -0.594902 237 227 217
-0.164993 1.704373 -0.602393 236 226 216
-0.15699 1.709791 -0.605339 236 226 216
-0.149104 1.716815 -0.608734 235 225 215
-0.140515 1.718052 -0.610569 235 225 215
-0.134109 1.740589 -0.618218 234 224 214
-0.125828 1.746324 -0.621307 233 223 213
-0.11754 1.752566 -0.624544 232 222 212
-0.110563 1.774274 -0.632048 231 221 211
-0.102057 1.780154 -0.635213 230 220 210
-0.093597 1.78725 -0.638721 229 219 209
-0.085187 1.795843 -0.642651 227 217 207
-0.077279 1.8128 -0.648922 227 217 207
-0.068345 1.816087 -0.651394 229 219 209
-0.059382 1.819227 -0.653824 229 219 209
-0.050911 1.831776 -0.658897 227 217 207
-0.041984 1.837268 -0.661994 220 210 200
-0.032857 1.839132 -0.664066 218 208 198
-0.02458 1.862708 -0.672293 216 206 196
-0.015653 1.873673 -0.676963 215 205 195
-0.006536 1.881366 -0.680709 212 202 192
0.0027 1.88676 -0.683802 210 200 190
0.011854 1.898223 -0.688636 208 198 188
0.021116 1.909053 -0.693299 205 195 185
0.030517 1.915494 -0.696705 202 192 182
0.039955 1.924388 -0.700823 198 188 178
0.049469 1.933427 -0.704989 194 184 174
0.059058 1.941764 -0.708958 190 180 169
0.068714 1.949465 -0.712746 185 175 163
0.078422 1.956207 -0.716259 182 172 160
0.088203 1.963719 -0.72 180 170 158
0.098019 1.96986 -0.723343 177 168 155
0.107846 1.974464 -0.726236 172 165 151
0.11769 1.97835 -0.728917 155 148 136
0.127561 1.982047 -0.731542 61 54 42
0.137993 1.998088 -0.737832 102 95 84
0.147955 2.001013 -0.740235 156 149 137
0.157972 2.004414 -0.742779 155 148 135
0.168361 2.01375 -0.747098 152 145 130
0.17884 2.02304 -0.751413 147 138 120
0.18888 2.024355 -0.753338 118 103 83
0.198948 2.02583 -0.755309 108 81 61
0.209264 2.030284 -0.758177 110 76 59
0.219521 2.033404 -0.760644 109 75 56
0.229544 2.03336 -0.76215 109 76 58
0.239257 2.029809 -0.762586 107 76 55
0.248769 2.024405 -0.762447 111 80 58
0.258645 2.023051 -0.763536 114 85 65
0.268114 2.017839 -0.763438 118 91 72
0.277532 2.012509 -0.763293 121 94 78
0.286993 2.007895 -0.763358 121 92 77
0.296223 2.001603 -0.762897 124 102 86
0.305749 1.998054 -0.763273 131 110 94
0.314405 1.987939 -0.761606 137 117 101
0.323156 1.979135 -0.76033 138 122 105
0.332098 1.972204 -0.759624 141 127 109
0.34091 1.964719 -0.758733 145 132 113
0.350294 1.961428 -0.759144 149 137 119
0.35951 1.957138 -0.759236 151 138 122
0.367849 1.947474 -0.757631 154 141 125
0.376806 1.942033 -0.757343 154 141 125
0.384831 1.931262 -0.755364 155 143 129
0.393994 1.927528 -0.755597 156 144 131
0.403273 1.924531 -0.756059 158 146 131
0.411733 1.91711 -0.755109 157 145 131
0.420122 1.909576 -0.754114 145 133 119
0.429312 1.906449 -0.754516 104 93 81
0.440014 1.910962 -0.757361 50 40 29
0.446822 1.896016 -0.75397 33 23 13
0.453242 1.879811 -0.750153 60 50 39
0.460881 1.869955 -0.748361 61 52 40
0.468414 1.859946 -0.746506 62 52 41
0.476745 1.853833 -0.7459 36 26 16
0.484748 1.846445 -0.744873 52 43 29
0.494707 1.847612 -0.746619 149 140 125
0.499496 1.827012 -0.741275 159 150 135
0.507298 1.819487 -0.740174 162 153 138
0.516928 1.81948 -0.741524 163 154 139
0.526036 1.817313 -0.742168 164 155 140
0.534558 1.812863 -0.742061 165 155 140
0.542837 1.807562 -0.74167 164 155 142
0.550913 1.801606 -0.741056 164 154 142
0.558858 1.795288 -0.740317 166 156 144
0.566916 1.789499 -0.739747 166 155 143
0.574215 1.781164 -0.738325 164 154 142
0.582569 1.776642 -0.738164 165 155 142
0.591281 1.773384 -0.73842 166 155 142
0.598588 1.765487 -0.737123 166 154 142
0.605224 1.755573 -0.735141 168 156 142
0.61334 1.750628 -0.734817 167 155 141
0.621148 1.744782 -0.734186 168 156 143
0.626163 1.730397 -0.730666 167 155 143
0.635292 1.72889 -0.731485 167 155 142
0.641976 1.720023 -0.72981 167 155 141
0.649762 1.714583 -0.729289 167 156 142
0.657583 1.709318 -0.728823 167 156 142
0.663811 1.699584 -0.726827 165 155 143
0.671194 1.693295 -0.725998 167 155 142
0.677476 1.684058 -0.724153 166 155 141
0.684464 1.676931 -0.723022 166 154 140
0.692706 1.673287 -0.723083 164 152 138
0.698509 1.663212 -0.720922 164 152 138
0.705165 1.655562 -0.719588 165 153 139
0.712851 1.650686 -0.719208 164 153 139
0.721169 1.647454 -0.719395 164 153 139
0.726794 1.637512 -0.717244 164 153 138
0.747978 1.666011 -0.728498 164 153 138
0.736386 1.614166 -0.711696 164 153 138
0.747029 1.616824 -0.713924 164 153 139
0.754269 1.611296 -0.713283 164 153 139
0.759496 1.601147 -0.711011 164 153 139
0.765396 1.592724 -0.709335 165 153 139
0.768641 1.578426 -0.705571 164 153 139
0.773325 1.567632 -0.703031 163 153 138
0.787866 1.57879 -0.708276 163 153 138
0.787485 1.557064 -0.701833 163 153 138
0.794248 1.551174 -0.701011 164 154 138
0.803519 1.550676 -0.702112 164 153 138
0.810861 1.546062 -0.70174 164 154 139
0.81664 1.538241 -0.700212 167 155 141
0.824335 1.534449 -0.700126 166 154 140
0.833179 1.532989 -0.700878 166 154 140
0.833892 1.515247 -0.695743 167 155 140
0.841603 1.511653 -0.695711 167 155 141
0.850383 1.510143 -0.696434 168 155 141
0.857752 1.50587 -0.696152 168 155 141
0.864534 1.500495 -0.695465 167 153 140
0.871689 1.495864 -0.695044 167 153 140
0.878031 1.489746 -0.694075 168 154 141
0.883747 1.482532 -0.692696 168 156 140
0.888226 1.473152 -0.690511 168 156 141
0.894223 1.466626 -0.689367 168 156 142
0.899701 1.459242 -0.687899 169 157 143
0.910356 1.461029 -0.689822 169 157 142
0.917913 1.457309 -0.689706 169 157 143
0.918945 1.442385 -0.685414 169 157 143
0.926334 1.438494 -0.685219 168 156 142
0.93091 1.42988 -0.683254 167 155 139
0.939909 1.428711 -0.68407 168 156 140
0.947946 1.4259 -0.68427 167 155 141
0.951986 1.416563 -0.682011 168 156 141
0.95685 1.40866 -0.680282 168 156 142
0.962876 1.402687 -0.679273 167 155 140
0.969966 1.398422 -0.678905 164 152 137
0.97637 1.393088 -0.678127 165 153 138
0.981251 1.385426 -0.676457 167 155 139
0.985788 1.377308 -0.674604 168 156 140
0.992949 1.373224 -0.674284 168 156 140
1.000385 1.36954 -0.674114 168 156 141
1.004737 1.361279 -0.672183 168 156 142
1.010371 1.354967 -0.670992 168 155 141
1.015928 1.348575 -0.669763 161 147 134
1.022902 1.344246 -0.669325 147 133 122
1.031614 1.342367 -0.669836 150 141 128
1.00708 1.293773 -0.652177 150 143 129
1.003987 1.275844 -0.64639 152 146 132
1.015931 1.278856 -0.648758 154 148 134
1.024094 1.276558 -0.649057 154 148 134
1.030301 1.271571 -0.6483 155 149 135
1.037728 1.268205 -0.648176 155 149 135
1.041925 1.260539 -0.646356 155 149 135
1.046115 1.25291 -0.644541 154 148 134
1.057447 1.254569 -0.646397 156 149 135
1.063683 1.249558 -0.645612 157 149 134
1.064689 1.237903 -0.642178 154 147 131
1.063346 1.223418 -0.637599 153 134 118
1.034345 1.174719 -0.619314 177 102 93
1.034593 1.162883 -0.615721 193 91 82
