ply
format ascii 1.0
comment ---
element vertex 1221
property float x
property float y
property float z
property uchar red
property uchar green
property uchar blue
element face 0
property list uchar uint vertex_indices
end_header
-0.57747 1.309526 -0.598406 155 149 136
-0.572251 1.316353 -0.600713 155 149 137
-0.566781 1.322398 -0.602703 155 149 137
-0.561427 1.329121 -0.604964 156 149 137
-0.555831 1.335061 -0.606907 156 150 137
-0.550598 1.342756 -0.609551 156 150 137
-0.544602 1.347397 -0.610969 156 150 138
-0.538787 1.352996 -0.612769 157 150 138
-0.533166 1.35969 -0.615005 157 150 138
-0.527429 1.366096 -0.617124 157 150 139
-0.52164 1.372503 -0.61924 157 151 139
-0.515695 1.378391 -0.621147 158 151 139
-0.510297 1.387297 -0.624255 158 151 139
-0.504541 1.394736 -0.626775 158 152 140
-0.498579 1.401409 -0.628987 159 152 140
-0.492502 1.407754 -0.631065 157 151 139
-0.486219 1.413216 -0.632791 157 151 139
-0.479873 1.418553 -0.634465 156 150 138
-0.473681 1.425063 -0.636604 158 152 140
-0.467501 1.431985 -0.638903 160 154 142
-0.460979 1.437073 -0.640474 160 152 141
-0.455223 1.447499 -0.644155 161 155 143
-0.449186 1.456638 -0.647323 162 156 144
-0.44275 1.463502 -0.649589 164 156 145
-0.4362 1.469936 -0.651682 163 155 144
-0.429777 1.477754 -0.65432 165 157 146
-0.423548 1.487657 -0.657777 163 155 144
-0.417159 1.496952 -0.66099 164 156 145
-0.410475 1.504387 -0.663467 161 154 143
-0.403675 1.511352 -0.665757 161 154 143
-0.39659 1.516152 -0.667195 161 154 143
-0.38943 1.520566 -0.668479 161 154 143
-0.38223 1.524908 -0.669735 161 154 143
-0.375718 1.537253 -0.674129 161 153 143
-0.369211 1.551002 -0.679069 161 153 143
-0.361861 1.555783 -0.680491 161 153 143
-0.354863 1.565764 -0.683948 161 152 142
-0.347561 1.572682 -0.686203 160 152 142
-0.340247 1.580326 -0.688741 160 151 141
-0.333044 1.590939 -0.692436 160 151 141
-0.326557 1.616333 -0.701895 159 150 140
-0.318618 1.617591 -0.701931 158 149 139
-0.310876 1.62331 -0.703707 157 148 138
-0.303409 1.63711 -0.708629 156 147 137
-0.295518 1.642548 -0.710294 156 148 137
-0.287676 1.651169 -0.713195 155 147 136
-0.279745 1.659415 -0.715949 153 145 134
-0.271768 1.66914 -0.719275 153 145 134
-0.263707 1.679315 -0.722774 153 145 134
-0.255635 1.697566 -0.729402 151 143 132
-0.247289 1.698583 -0.729346 150 142 131
-0.238946 1.712947 -0.73446 148 140 129
-0.230471 1.725368 -0.738818 148 140 129
-0.221919 1.733076 -0.741351 147 139 128
-0.213309 1.739588 -0.743421 136 128 116
-0.204723 1.741487 -0.74371 133 125 113
-0.196116 1.743412 -0.744011 129 121 108
-0.186869 1.766831 -0.752604 126 118 106
-0.17793 1.774208 -0.755006 124 116 103
-0.168916 1.781597 -0.757413 118 109 96
-0.159666 1.792605 -0.761213 109 102 88
-0.150128 1.807211 -0.766396 99 90 75
-0.140291 1.824585 -0.772639 87 73 58
-0.130775 1.833435 -0.775604 83 68 53
-0.119914 1.861967 -0.786125 80 64 50
-0.109789 1.875492 -0.790878 77 61 47
-0.099735 1.886065 -0.794498 61 38 24
-0.089922 1.892094 -0.796376 62 36 23
-0.079784 1.901141 -0.79941 62 36 23
-0.069734 1.908028 -0.801619 59 33 20
-0.059496 1.91604 -0.804259 59 36 22
-0.049125 1.924428 -0.807044 59 36 22
-0.039127 1.928227 -0.808076 59 36 22
-0.02932 1.929746 -0.808241 62 36 23
-0.019031 1.935218 -0.809918 62 36 23
-0.009503 1.933612 -0.808898 61 36 23
0.000341 1.934526 -0.808844 61 36 23
0.00856 1.922532 -0.803875 61 36 23
0.016996 1.912899 -0.799815 61 35 22
0.028101 1.923065 -0.8033 60 35 22
0.039103 1.931607 -0.806168 60 35 22
0.048249 1.926909 -0.804002 60 34 21
0.058012 1.926354 -0.803418 59 34 21
0.072086 1.952774 -0.813085 59 34 21
0.082953 1.957814 -0.814629 58 33 20
0.091157 1.946639 -0.810022 58 33 20
0.1013 1.947063 -0.809823 57 32 20
0.11558 1.970317 -0.818284 56 32 19
0.126192 1.972244 -0.818658 56 31 19
0.136974 1.974789 -0.81927 55 31 18
0.145719 1.966611 -0.815825 54 30 18
0.156122 1.966965 -0.815614 48 26 13
0.166159 1.965367 -0.814668 47 25 12
0.176658 1.965896 -0.81453 49 27 14
0.187126 1.966115 -0.814278 48 26 13
0.196394 1.960788 -0.811932 48 26 13
0.207064 1.961767 -0.811971 47 25 12
0.217131 1.960004 -0.810976 44 22 9
0.228124 1.962122 -0.811446 46 24 11
0.237697 1.95823 -0.80965 48 26 13
0.247421 1.955053 -0.808124 47 25 12
0.25755 1.953559 -0.807233 48 26 13
0.267368 1.950909 -0.805905 49 27 14
0.277714 1.950351 -0.805363 47 25 12
0.287599 1.948126 -0.80419 50 28 15
0.297573 1.94635 -0.803183 47 25 12
0.306391 1.940591 -0.800675 49 27 14
0.315548 1.936319 -0.798722 49 27 14
0.324128 1.93034 -0.796123 49 27 14
0.332731 1.924791 -0.793679 49 27 14
0.340733 1.917611 -0.790617 49 28 15
0.348675 1.910677 -0.787641 49 30 18
0.355487 1.900577 -0.78347 49 34 22
0.363627 1.895231 -0.781073 50 37 24
0.372162 1.891543 -0.779287 50 40 28
0.379544 1.884748 -0.776327 52 43 32
0.387486 1.880153 -0.77418 56 47 35
0.39441 1.873016 -0.771071 63 56 43
0.400759 1.864764 -0.767534 68 62 49
-0.881018 0.665835 -0.380573 35 16 0
-0.874813 0.665007 -0.379789 38 19 4
-0.871363 0.667105 -0.380348 35 16 1
-0.863192 0.664304 -0.378622 33 16 0
-0.864056 0.671128 -0.381337 34 17 1
-0.859746 0.672552 -0.381538 32 15 0
-0.857118 0.675861 -0.382594 32 16 1
-0.853527 0.678205 -0.383191 29 19 7
-0.849867 0.680538 -0.38377 26 22 11
-0.850717 0.687965 -0.386676 33 34 26
-0.992059 0.862192 -0.465335 10 12 7
-0.991346 0.869838 -0.468168 10 12 7
-0.993572 0.881033 -0.472602 9 11 6
-0.99441 0.890805 -0.476369 4 6 1
-0.992335 0.897295 -0.478627 1 3 0
-0.985267 0.897909 -0.47821 14 13 8
-0.976635 0.896603 -0.476924 102 96 84
-0.963469 0.889687 -0.473105 107 101 87
-0.95945 0.893859 -0.474302 107 101 85
-0.956038 0.898815 -0.47585 105 99 83
-0.951784 0.902754 -0.476937 107 101 87
-0.947287 0.906399 -0.477892 109 103 87
-0.943933 0.911522 -0.479508 112 105 89
-0.940836 0.917013 -0.481288 113 106 90
-0.937007 0.921585 -0.482656 112 106 90
-0.931311 0.923701 -0.482928 115 109 95
-0.927892 0.928835 -0.484548 113 107 93
-0.924904 0.93458 -0.486441 116 110 96
-0.918388 0.935538 -0.486209 114 108 92
-0.913656 0.938901 -0.487049 115 109 93
-0.90978 0.943449 -0.488416 113 107 91
-0.907853 0.950765 -0.491009 116 110 94
-0.903502 0.954691 -0.492105 114 108 92
-0.899117 0.958568 -0.493183 115 109 93
-0.89448 0.962077 -0.494101 115 109 93
-0.889751 0.965441 -0.494961 113 107 91
-0.886704 0.971302 -0.496919 112 106 92
-0.882984 0.976192 -0.498453 113 107 93
-0.879208 0.981021 -0.499962 111 105 89
-0.87446 0.984374 -0.50083 112 106 90
-0.869392 0.98722 -0.50148 110 104 88
-0.866472 0.993429 -0.503599 112 106 90
-0.862101 0.997385 -0.50474 111 105 89
-0.857312 1.000675 -0.505594 113 107 91
-0.852914 1.004595 -0.506725 113 107 91
-0.849672 1.010427 -0.508687 115 108 92
-0.845229 1.014314 -0.50981 116 109 93
-0.840325 1.017434 -0.510604 115 109 93
-0.835738 1.021091 -0.511633 121 115 99
-0.832305 1.026738 -0.513523 113 107 91
-0.828345 1.031526 -0.515043 121 115 99
-0.823924 1.035539 -0.516233 122 115 99
-0.820148 1.040719 -0.517926 123 117 101
-0.816474 1.046131 -0.519719 125 119 103
-0.81144 1.049122 -0.520477 126 120 104
-0.806971 1.053154 -0.521683 125 119 103
-0.802014 1.056301 -0.522512 127 121 105
-0.797702 1.060674 -0.523868 129 123 109
-0.795264 1.068662 -0.526767 128 122 106
-0.791224 1.07368 -0.528399 131 125 109
-0.786564 1.077541 -0.529539 131 125 109
-0.782181 1.081978 -0.530926 137 130 114
-0.777451 1.085766 -0.532038 132 125 109
-0.773519 1.091202 -0.533851 134 127 111
-0.769371 1.096267 -0.535507 136 129 113
-0.763475 1.097761 -0.535652 137 130 114
-0.759886 1.104091 -0.537844 138 130 117
-0.756401 1.110746 -0.540173 138 130 117
-0.752105 1.115757 -0.541808 138 130 117
-0.747392 1.119924 -0.543086 140 134 120
-0.743384 1.125706 -0.545045 142 134 121
-0.73841 1.129412 -0.54613 141 133 120
-0.733052 1.132281 -0.546865 141 135 121
-0.727889 1.135623 -0.547799 144 136 123
-0.724329 1.142747 -0.550321 143 137 123
-0.719731 1.147549 -0.551867 144 138 122
-0.715314 1.152861 -0.553627 143 137 121
-0.710287 1.15678 -0.554804 143 137 121
-0.705143 1.160462 -0.555882 145 139 123
-0.70081 1.166232 -0.557832 145 139 125
-0.696263 1.171566 -0.559598 147 141 127
-0.692447 1.178892 -0.562194 148 142 128
-0.687993 1.184707 -0.564158 148 142 128
-0.683033 1.189296 -0.565611 148 142 130
-0.677698 1.192952 -0.566675 150 144 130
-0.673475 1.19972 -0.569032 150 144 130
-0.667564 1.201936 -0.569499 151 145 131
-0.663418 1.209167 -0.572044 151 145 131
-0.658806 1.215233 -0.574104 150 144 132
-0.653761 1.220173 -0.575697 152 146 134
-0.648896 1.225757 -0.577555 154 148 136
-0.644047 1.231516 -0.579483 151 145 133
-0.638819 1.236253 -0.580988 153 147 135
-0.634633 1.244352 -0.583878 152 146 134
-0.629666 1.250192 -0.585834 153 147 135
-0.62407 1.254146 -0.587012 151 145 133
-0.618931 1.259689 -0.588843 151 145 133
-0.614303 1.267091 -0.591435 153 147 133
-0.609682 1.274736 -0.594124 153 147 133
-0.604023 1.278993 -0.595421 153 147 133
-0.599477 1.287303 -0.598377 154 148 135
-0.594303 1.293605 -0.600507 154 148 135
-0.588104 1.296317 -0.601167 154 148 135
-0.581846 1.29885 -0.601754 154 148 136
-0.576916 1.306527 -0.604442 155 148 136
-0.572456 1.316307 -0.607983 155 149 136
-0.566548 1.320642 -0.609301 155 149 136
-0.561443 1.328386 -0.612005 155 149 137
-0.556227 1.33594 -0.614629 155 149 137
-0.550473 1.341469 -0.616427 156 149 137
-0.544447 1.345995 -0.617816 156 150 137
-0.538659 1.351734 -0.619695 156 150 137
-0.532927 1.357934 -0.621759 156 150 138
-0.527298 1.364856 -0.624114 157 150 138
-0.521076 1.369196 -0.62542 157 150 138
-0.515262 1.375698 -0.627601 157 151 139
-0.510336 1.38698 -0.63171 158 151 139
-0.504674 1.394959 -0.63448 158 151 139
-0.49878 1.402063 -0.636894 158 151 139
-0.49232 1.40637 -0.638177 157 151 139
-0.486168 1.412601 -0.640235 157 151 139
-0.479879 1.418316 -0.642082 157 151 139
-0.473348 1.422847 -0.643452 157 151 139
-0.467355 1.430929 -0.646247 158 152 140
-0.461468 1.440133 -0.64949 158 152 140
-0.45554 1.449599 -0.652835 160 154 142
-0.448877 1.454589 -0.65438 161 155 143
-0.442537 1.462141 -0.656951 160 154 142
-0.436106 1.4695 -0.659442 163 155 144
-0.429763 1.478007 -0.66239 163 155 144
-0.423151 1.484951 -0.66471 163 155 144
-0.416724 1.493916 -0.667834 164 156 145
-0.410275 1.503371 -0.671151 160 153 142
-0.403694 1.512394 -0.674292 160 153 142
-0.396465 1.51598 -0.675263 160 153 142
-0.389211 1.519571 -0.676236 160 153 142
-0.383053 1.534973 -0.681909 160 152 142
-0.376005 1.542076 -0.684275 160 152 142
-0.368376 1.543038 -0.6842 160 152 142
-0.361315 1.551096 -0.686944 160 152 141
-0.354452 1.562762 -0.691116 160 151 141
-0.347347 1.572475 -0.694511 159 151 141
-0.34001 1.579955 -0.697017 159 150 140
-0.332932 1.592871 -0.701674 158 150 139
-0.325838 1.607688 -0.707077 157 149 139
-0.31814 1.613161 -0.708782 156 147 138
-0.310877 1.629382 -0.714732 155 146 136
-0.303086 1.636229 -0.716975 154 145 135
-0.295179 1.641474 -0.718586 154 146 135
-0.287539 1.65716 -0.724312 154 146 135
-0.279391 1.658545 -0.7244 153 145 134
-0.271502 1.673235 -0.729726 151 143 132
-0.263325 1.678158 -0.731206 152 144 133
-0.25517 1.689599 -0.735249 150 142 131
-0.246881 1.696582 -0.737538 145 137 126
-0.238527 1.704278 -0.740106 148 140 129
-0.230072 1.718022 -0.745046 145 137 126
-0.221551 1.724462 -0.74712 144 136 125
-0.212952 1.732034 -0.749637 129 121 108
-0.204265 1.740234 -0.752399 126 118 106
-0.195581 1.745003 -0.753819 124 116 103
-0.186593 1.758467 -0.758639 118 110 97
-0.177599 1.768178 -0.761991 103 93 79
-0.168354 1.781768 -0.766855 91 78 63
-0.159208 1.789948 -0.769606 85 69 55
-0.149037 1.817326 -0.779843 82 66 52
-0.139445 1.828822 -0.783882 79 63 49
-0.129464 1.84488 -0.789696 76 60 46
-0.118967 1.866401 -0.797634 55 33 19
-0.109228 1.873656 -0.800016 58 35 21
-0.099501 1.879648 -0.801908 62 34 22
-0.08981 1.884267 -0.803269 60 34 21
-0.079787 1.89216 -0.805904 62 36 23
-0.069737 1.899318 -0.808254 63 37 24
-0.060069 1.901473 -0.808666 59 36 22
-0.050206 1.905234 -0.809704 62 36 23
-0.039645 1.915192 -0.813146 62 36 23
-0.029748 1.917966 -0.813807 62 36 23
-0.020878 1.911286 -0.810813 61 36 23
-0.013542 1.892083 -0.802985 61 36 23
-0.003981 1.892245 -0.802654 61 35 22
0.006447 1.898954 -0.804857 61 35 22
0.014674 1.888547 -0.800453 60 35 22
0.025551 1.897787 -0.803641 60 35 22
0.036965 1.909917 -0.807946 60 34 21
0.046829 1.910662 -0.80786 59 34 21
0.056663 1.910981 -0.807615 59 34 21
0.069569 1.930355 -0.814714 58 33 20
0.080983 1.939282 -0.817789 58 33 20
0.088837 1.926533 -0.812524 57 32 20
0.098455 1.924442 -0.811367 56 32 19
0.109559 1.930538 -0.813363 56 31 19
0.120008 1.932593 -0.813808 55 31 18
0.132629 1.94576 -0.818525 54 30 17
0.143621 1.949746 -0.819716 53 30 17
0.15413 1.950969 -0.819849 53 29 16
0.165019 1.95382 -0.820609 52 29 16
0.175146 1.952786 -0.819883 51 29 16
0.184589 1.948521 -0.81792 47 25 12
0.195152 1.949369 -0.817921 48 26 13
0.205209 1.947843 -0.817013 49 27 14
0.215901 1.949011 -0.817139 47 25 12
0.225776 1.946612 -0.8159 48 26 13
0.235822 1.944945 -0.814943 48 26 13
0.245283 1.940949 -0.813095 47 25 12
0.254772 1.93719 -0.811338 49 27 14
0.264919 1.936094 -0.810597 47 25 12
0.276721 1.941275 -0.81225 46 24 11
0.286662 1.939403 -0.811207 47 25 12
0.296707 1.938021 -0.810347 47 25 12
0.305699 1.933023 -0.808103 45 23 10
0.315458 1.930973 -0.806979 47 25 12
0.324451 1.926497 -0.804923 48 26 14
0.334002 1.924196 -0.803689 48 26 14
0.342148 1.917511 -0.800779 48 27 14
0.35112 1.913928 -0.79904 48 27 15
0.359223 1.907916 -0.796368 49 28 15
0.367751 1.903685 -0.794363 49 29 17
0.375139 1.896337 -0.791164 49 32 20
0.382825 1.890423 -0.788498 49 36 24
0.387977 1.877415 -0.78313 50 39 26
0.394735 1.869864 -0.77982 50 41 28
0.397177 1.850335 -0.771963 52 43 32
-0.882317 0.666093 -0.385414 39 20 3
-0.874666 0.663767 -0.383911 36 17 2
-0.871614 0.666266 -0.384667 36 17 2
-0.867529 0.667771 -0.384937 37 18 3
-0.861394 0.667169 -0.384202 34 17 1
-0.861368 0.673155 -0.386544 32 15 0
-0.858041 0.675709 -0.387259 33 17 2
-0.854587 0.678202 -0.387931 30 18 6
-0.850209 0.679743 -0.388145 24 17 7
-0.846783 0.68239 -0.388863 40 40 30
-0.991366 0.859901 -0.470239 8 10 5
-0.98668 0.862964 -0.470984 13 15 10
-0.990102 0.87547 -0.476089 9 10 5
-0.999697 0.895431 -0.484615 3 5 0
-0.998024 0.902449 -0.487138 1 3 0
-0.987526 0.899035 -0.484846 15 12 5
-0.974684 0.892684 -0.48121 107 101 89
-0.967803 0.893419 -0.480836 104 98 86
-0.959409 0.892254 -0.479594 108 100 87
-0.95574 0.896888 -0.481008 109 101 88
-0.952492 0.902085 -0.482676 108 100 87
-0.948533 0.906424 -0.48395 111 104 88
-0.944346 0.910493 -0.4851 113 106 90
-0.941868 0.916791 -0.487262 111 105 89
-0.936581 0.919468 -0.48778 113 107 93
-0.932166 0.923279 -0.488814 113 107 93
-0.929561 0.929515 -0.490945 114 108 94
-0.923835 0.931583 -0.491195 112 106 92
-0.919456 0.935454 -0.492262 116 110 94
-0.916343 0.941073 -0.494117 116 110 96
-0.912617 0.945873 -0.495606 116 110 94
-0.90711 0.94818 -0.495978 115 109 93
-0.903544 0.953221 -0.49758 113 107 93
-0.899928 0.958212 -0.499162 115 109 95
-0.895312 0.96177 -0.500105 113 107 91
-0.89074 0.965386 -0.501079 112 106 90
-0.886619 0.969665 -0.502352 110 104 88
-0.882879 0.974529 -0.503887 111 105 91
-0.879119 0.979384 -0.505421 112 106 94
-0.873013 0.980655 -0.50537 111 105 89
-0.870146 0.986907 -0.507529 111 105 89
-0.865498 0.990416 -0.508476 112 106 90
-0.86169 0.995255 -0.510015 112 106 90
-0.857416 0.999374 -0.511239 112 106 90
-0.853504 1.004093 -0.512729 115 109 93
-0.849563 1.00879 -0.514213 117 110 94
-0.846439 1.014873 -0.516307 116 109 93
-0.840141 1.015683 -0.516091 118 111 95
-0.836768 1.021406 -0.518031 118 111 95
-0.833001 1.026504 -0.5197 120 114 98
-0.829214 1.031613 -0.521374 121 114 98
-0.824656 1.035408 -0.522478 122 115 99
-0.817868 1.035253 -0.521864 122 116 100
-0.81715 1.045941 -0.525973 124 118 102
-0.812353 1.049385 -0.52693 125 119 103
-0.806694 1.051253 -0.527207 127 121 105
-0.80239 1.05562 -0.528571 128 122 106
-0.79878 1.06133 -0.530518 129 123 109
-0.795261 1.067284 -0.532571 130 124 110
-0.790899 1.071687 -0.533954 130 124 108
-0.786065 1.075206 -0.534957 131 126 107
-0.782466 1.081191 -0.537025 133 126 110
-0.778091 1.085703 -0.538459 133 126 110
-0.774767 1.092394 -0.540831 137 130 114
-0.76983 1.095879 -0.541825 138 130 117
-0.765016 1.099644 -0.54294 137 130 114
-0.760596 1.10427 -0.544427 138 131 115
-0.756909 1.110519 -0.546608 139 131 118
-0.752188 1.114634 -0.547876 141 135 121
-0.747686 1.119273 -0.549369 138 132 118
-0.743553 1.124794 -0.551239 139 133 119
-0.738649 1.128669 -0.552407 142 134 121
-0.73319 1.131327 -0.553056 144 136 123
-0.728288 1.135283 -0.554261 141 133 120
-0.724117 1.140997 -0.556213 142 136 122
-0.719845 1.146574 -0.558106 140 134 118
-0.7152 1.15135 -0.559658 143 137 121
-0.710833 1.156882 -0.561531 144 138 122
-0.706226 1.161922 -0.563194 143 137 123
-0.700676 1.164687 -0.563895 146 140 126
-0.697841 1.174381 -0.567525 146 140 126
-0.691378 1.174938 -0.567292 147 141 127
-0.687219 1.181495 -0.569594 147 141 127
-0.68273 1.187314 -0.571583 147 141 127
-0.677644 1.191644 -0.572942 148 142 130
-0.672183 1.195022 -0.573901 149 143 129
-0.668267 1.202753 -0.576691 150 144 130
-0.663186 1.20738 -0.578173 149 143 129
-0.658552 1.213381 -0.580231 151 145 131
-0.653558 1.218471 -0.581906 151 145 131
-0.64874 1.224196 -0.583845 153 147 135
-0.644023 1.230361 -0.585967 151 145 133
-0.639534 1.237377 -0.588443 150 144 132
-0.634968 1.244337 -0.590892 152 146 134
-0.630997 1.253374 -0.594205 151 145 133
-0.625102 1.256451 -0.59503 152 146 134
-0.618888 1.258532 -0.595439 151 145 131
-0.614421 1.266488 -0.598294 152 146 132
-0.609414 1.272833 -0.600476 153 147 133
-0.604084 1.278237 -0.602265 152 146 132
-0.598704 1.283609 -0.604039 153 147 134
-0.594118 1.292002 -0.607064 153 147 134
-0.588296 1.296108 -0.608308 153 147 135
-0.583785 1.305252 -0.611638 154 148 135
-0.577889 1.309393 -0.612894 154 148 135
-0.572095 1.314044 -0.614359 154 148 135
-0.566153 1.318235 -0.615633 154 148 136
-0.561254 1.326807 -0.618715 154 148 136
-0.555811 1.333421 -0.620985 155 149 136
-0.549787 1.337786 -0.622325 155 149 136
-0.54353 1.341265 -0.623301 155 149 137
-0.538436 1.350044 -0.626455 155 149 137
-0.53318 1.358435 -0.629446 156 149 137
-0.527188 1.363711 -0.631154 156 150 137
-0.522025 1.373178 -0.63458 156 150 138
-0.516149 1.379533 -0.636726 157 150 138
-0.510172 1.385638 -0.638767 157 150 138
-0.504286 1.392466 -0.641102 157 151 139
-0.498589 1.400614 -0.643974 158 151 139
-0.492407 1.406476 -0.645908 156 150 138
-0.486206 1.412492 -0.647903 156 150 138
-0.479842 1.417834 -0.649622 158 152 140
-0.473661 1.424527 -0.651889 158 152 140
-0.467473 1.431517 -0.654275 159 153 141
-0.461956 1.443195 -0.658567 158 152 140
-0.455382 1.448553 -0.660283 160 154 142
-0.448858 1.454538 -0.662252 160 154 142
-0.442734 1.463715 -0.665516 159 153 141
-0.436059 1.469412 -0.667365 161 155 143
-0.429702 1.477896 -0.670341 162 154 143
-0.422856 1.483064 -0.671971 163 155 144
-0.416515 1.492778 -0.67544 164 156 145
-0.410224 1.503662 -0.679379 159 152 141
-0.403435 1.510918 -0.681847 159 152 141
-0.396364 1.516065 -0.68346 159 152 141
-0.389128 1.519968 -0.684572 159 152 141
-0.382859 1.53436 -0.689912 159 151 141
-0.376051 1.544239 -0.693428 159 151 141
-0.368873 1.550809 -0.695609 159 151 140
-0.361639 1.557354 -0.697777 159 150 140
-0.354451 1.565266 -0.700494 159 150 140
-0.347406 1.57622 -0.704431 158 150 139
-0.340522 1.591226 -0.709992 158 149 139
-0.332859 1.595523 -0.71125 157 148 138
-0.325387 1.603947 -0.714162 156 147 137
-0.31795 1.61459 -0.717962 155 146 136
-0.310587 1.629089 -0.723302 153 145 134
-0.302738 1.634787 -0.725116 151 143 132
-0.294794 1.639225 -0.726426 153 145 134
-0.287117 1.653841 -0.731802 150 142 131
-0.27919 1.664025 -0.735405 150 142 131
-0.271105 1.671079 -0.737756 148 140 129
-0.262967 1.678938 -0.740428 150 142 131
-0.254789 1.690092 -0.744412 146 138 127
-0.246478 1.696339 -0.746439 148 140 129
-0.238108 1.701659 -0.748098 146 138 127
-0.229681 1.708264 -0.750268 143 135 122
-0.221159 1.718121 -0.753731 139 131 118
-0.21248 1.732141 -0.758845 123 115 102
-0.20373 1.742672 -0.762572 114 106 92
-0.195005 1.747872 -0.764182 98 84 69
-0.186191 1.754338 -0.766297 87 71 57
-0.176468 1.785258 -0.778094 84 68 53
-0.167366 1.792561 -0.780535 81 65 51
-0.158306 1.797176 -0.781913 78 62 48
-0.148611 1.813637 -0.787976 76 59 45
-0.139034 1.824812 -0.791946 44 22 9
-0.128351 1.852694 -0.802511 50 28 15
-0.118878 1.857254 -0.803866 60 37 23
-0.109517 1.85942 -0.80428 59 36 22
-0.099795 1.866017 -0.806444 62 36 23
-0.089974 1.872888 -0.808717 63 37 24
-0.080013 1.880462 -0.811269 61 35 22
-0.069844 1.889377 -0.81435 64 38 25
-0.060268 1.890885 -0.81452 59 33 20
-0.050543 1.893571 -0.815157 61 33 22
-0.040693 1.897053 -0.816111 61 35 22
-0.030495 1.903226 -0.818124 61 36 23
-0.021165 1.90109 -0.816881 61 35 23
-0.013139 1.888021 -0.811358 61 35 22
0.006441 1.820296 -0.78369 60 35 22
0.02099 1.85817 -0.798144 60 34 21
0.034919 1.888906 -0.809798 59 34 21
0.043443 1.881287 -0.806454 59 34 21
0.054923 1.893079 -0.8107 59 33 21
0.063651 1.886741 -0.807869 58 33 20
0.073435 1.887016 -0.807626 57 32 20
0.083987 1.891612 -0.809072 57 32 19
0.095301 1.900102 -0.812041 56 31 19
0.103292 1.889559 -0.807593 55 31 18
0.113784 1.892888 -0.808557 54 30 17
0.120564 1.876471 -0.801836 53 30 17
0.139888 1.924576 -0.820236 52 29 16
0.152373 1.936141 -0.824408 52 29 16
0.163221 1.939066 -0.82522 51 28 16
0.173482 1.938948 -0.824851 51 28 15
0.183375 1.937011 -0.823779 50 28 15
0.193388 1.935586 -0.822909 48 26 13
0.203878 1.936203 -0.822833 47 25 12
0.213847 1.934471 -0.821848 48 26 13
0.225324 1.939027 -0.823302 48 26 13
0.234608 1.934355 -0.821178 46 24 11
0.242965 1.92612 -0.817673 47 25 12
0.25249 1.922773 -0.816064 47 25 12
0.264249 1.928107 -0.817814 50 28 15
0.275171 1.930084 -0.818261 49 27 14
0.28587 1.931187 -0.818365 46 24 11
0.295159 1.927206 -0.816498 46 24 11
0.305009 1.925433 -0.81548 49 27 14
0.315111 1.924696 -0.814856 49 27 14
0.32431 1.921032 -0.813093 43 23 12
0.333473 1.917523 -0.811383 39 19 8
0.341301 1.909916 -0.808083 38 18 7
0.349865 1.905149 -0.80587 48 26 14
0.359674 1.904729 -0.805322 48 27 14
0.368345 1.901011 -0.803491 48 27 15
0.375923 1.894323 -0.800503 48 27 15
0.383777 1.888975 -0.79802 48 28 16
0.393486 1.889652 -0.79784 48 31 19
0.399641 1.880188 -0.793746 48 34 22
0.405351 1.870064 -0.789386 48 36 24
-0.875455 0.657972 -0.38626 36 17 0
-0.874991 0.663015 -0.388267 37 18 3
-0.87171 0.665262 -0.388913 35 16 1
-0.869197 0.66841 -0.389972 38 19 4
-0.865219 0.670105 -0.390318 33 16 0
-0.860371 0.670941 -0.390239 34 17 1
-0.858401 0.67494 -0.39165 34 18 3
-0.854483 0.676918 -0.392083 30 18 4
-0.850303 0.678666 -0.392395 24 18 6
-0.846028 0.68036 -0.39267 49 46 37
-0.991056 0.858036 -0.47534 9 11 6
-0.991922 0.867445 -0.479076 9 11 6
-0.995112 0.879718 -0.484136 10 12 7
-1.002368 0.896968 -0.491506 4 6 1
-1.001568 0.905033 -0.494546 1 3 0
-0.993475 0.904536 -0.493571 17 16 11
-0.978605 0.895828 -0.488766 96 89 81
-0.967136 0.891032 -0.485799 105 99 87
-0.963478 0.895687 -0.487234 106 100 88
-0.956343 0.896064 -0.486681 106 100 86
-0.953718 0.902048 -0.488728 110 104 90
-0.949824 0.906484 -0.490055 109 103 87
-0.945989 0.911021 -0.491427 110 104 88
-0.941212 0.914363 -0.492247 110 104 88
-0.936502 0.91779 -0.493107 111 105 89
-0.932393 0.922007 -0.494333 112 106 92
-0.928238 0.926174 -0.495536 112 106 92
-0.923364 0.929379 -0.496301 113 107 93
-0.920622 0.935481 -0.498394 114 108 94
-0.916428 0.939628 -0.499594 114 108 94
-0.91208 0.943567 -0.500701 114 108 92
-0.907503 0.947182 -0.501665 113 107 93
-0.903218 0.951208 -0.502819 114 108 94
-0.899479 0.956021 -0.504333 113 107 93
-0.89584 0.961001 -0.505925 112 106 92
-0.891383 0.964799 -0.506985 113 107 93
-0.886811 0.968425 -0.507971 112 106 92
-0.882933 0.973089 -0.509429 112 106 92
-0.87898 0.977657 -0.510847 112 106 90
-0.875967 0.983685 -0.512923 111 105 89
-0.871104 0.986891 -0.513735 113 107 91
-0.86588 0.989521 -0.514293 113 107 91
-0.861408 0.993319 -0.515379 113 107 91
-0.857341 0.99777 -0.51676 114 108 92
-0.853398 1.002443 -0.518243 113 107 91
-0.850814 1.009371 -0.520734 115 109 93
-0.844799 1.010685 -0.520726 118 111 95
-0.838995 1.012305 -0.52086 115 108 92
-0.837039 1.020413 -0.523881 119 112 96
-0.835127 1.028707 -0.526981 121 114 98
-0.830149 1.031796 -0.527776 120 113 97
-0.825112 1.034777 -0.528527 123 116 100
-0.821053 1.03949 -0.530047 124 117 101
-0.817375 1.044925 -0.531887 124 118 102
-0.812604 1.048429 -0.532877 125 119 103
-0.807586 1.051491 -0.533676 124 118 102
-0.804048 1.05731 -0.535689 128 121 105
-0.799723 1.061716 -0.537084 128 122 106
-0.796095 1.067489 -0.539079 128 122 108
-0.790526 1.069589 -0.539465 130 124 108
-0.786749 1.075173 -0.54138 129 123 107
-0.782439 1.079774 -0.542866 132 125 109
-0.779505 1.087176 -0.545575 137 130 114
-0.774821 1.091152 -0.546789 137 129 116
-0.770133 1.095156 -0.548017 136 128 115
-0.765591 1.099503 -0.549396 136 129 113
-0.760997 1.103788 -0.550748 137 130 114
-0.756515 1.108358 -0.552226 139 132 116
-0.752043 1.113007 -0.553739 140 134 120
-0.747316 1.117159 -0.555036 140 134 118
-0.743344 1.123032 -0.55708 141 133 120
-0.738411 1.126846 -0.558232 143 135 122
-0.733291 1.130279 -0.559221 140 134 118
-0.72849 1.134479 -0.560542 142 136 122
-0.725337 1.142585 -0.563548 142 136 122
-0.719863 1.145363 -0.564256 142 136 120
-0.715523 1.150882 -0.566145 141 135 119
-0.711611 1.157539 -0.568523 144 138 122
-0.70606 1.160285 -0.569219 143 137 121
-0.701223 1.164839 -0.570692 146 140 126
-0.696083 1.1687 -0.571868 146 140 126
-0.693011 1.177954 -0.575353 146 140 126
-0.687575 1.181238 -0.576281 148 142 128
-0.682244 1.184843 -0.577346 147 141 129
-0.676741 1.188037 -0.578237 148 142 130
-0.672621 1.195066 -0.580763 148 142 128
-0.66862 1.202587 -0.583497 149 143 129
-0.664024 1.20861 -0.58559 150 144 132
-0.659216 1.214163 -0.587482 150 144 132
-0.655567 1.223219 -0.59086 150 144 130
-0.649249 1.224602 -0.590977 151 145 133
-0.644827 1.231696 -0.593518 151 145 133
-0.63997 1.237634 -0.595566 154 148 134
-0.636072 1.246717 -0.598944 152 146 134
-0.631033 1.252434 -0.600894 151 145 133
-0.62513 1.255505 -0.601724 150 144 132
-0.619097 1.258198 -0.602393 151 145 131
-0.613775 1.263314 -0.604087 153 147 133
-0.609316 1.271507 -0.607075 151 145 131
-0.604371 1.278261 -0.609454 151 145 131
-0.600012 1.287289 -0.612787 152 146 133
-0.594385 1.292029 -0.614312 153 147 133
-0.58943 1.299369 -0.616929 153 147 134
-0.583826 1.304508 -0.618619 153 147 134
-0.577669 1.307673 -0.619479 153 147 134
-0.571335 1.310212 -0.620077 153 147 134
-0.566611 1.319237 -0.623391 154 147 135
-0.561529 1.327125 -0.626225 154 148 135
-0.555164 1.329939 -0.626934 154 148 135
-0.549301 1.334958 -0.628565 154 148 135
-0.543525 1.340522 -0.630421 154 148 136
-0.538148 1.348063 -0.633099 155 149 136
-0.533277 1.358219 -0.636864 155 149 136
-0.528037 1.367074 -0.640082 155 149 137
-0.522061 1.37276 -0.641979 156 149 137
-0.516065 1.378561 -0.643921 156 150 137
-0.510067 1.384591 -0.645956 156 150 138
-0.504369 1.392431 -0.64874 157 150 138
-0.498488 1.399653 -0.651264 157 150 138
-0.49226 1.405295 -0.653132 155 149 137
-0.486099 1.411566 -0.655258 156 150 138
-0.479821 1.417451 -0.657222 156 150 138
-0.473765 1.424951 -0.659851 158 152 140
-0.467414 1.431013 -0.661884 159 153 141
-0.462064 1.443818 -0.666697 159 153 141
-0.455472 1.449155 -0.668425 159 153 141
-0.448772 1.454036 -0.669964 160 152 141
-0.44254 1.462509 -0.672981 161 153 142
-0.435977 1.469079 -0.675211 162 154 143
-0.429394 1.475906 -0.677545 163 155 144
-0.422776 1.482915 -0.679952 161 153 142
-0.416263 1.491291 -0.682917 163 155 144
-0.409818 1.50088 -0.686377 158 151 140
-0.403199 1.509673 -0.689507 158 151 140
-0.396263 1.516168 -0.691693 158 151 140
-0.389101 1.520944 -0.693175 158 150 140
-0.382132 1.528141 -0.695645 158 150 140
-0.376179 1.54736 -0.703023 158 150 139
-0.368984 1.554066 -0.705287 158 150 139
-0.361682 1.560141 -0.70729 158 149 139
-0.354474 1.56815 -0.710082 157 149 138
-0.347068 1.574338 -0.71213 157 148 138
-0.339966 1.586037 -0.716419 156 147 137
-0.332495 1.593361 -0.718925 155 146 136
-0.325281 1.606582 -0.723826 154 145 135
-0.317669 1.61426 -0.726471 152 144 133
-0.310029 1.622873 -0.729495 151 142 132
-0.302348 1.632427 -0.732898 149 141 130
-0.294426 1.637559 -0.734508 151 143 132
-0.286731 1.651866 -0.739832 148 140 129
-0.278702 1.658149 -0.741906 148 140 129
-0.270602 1.663766 -0.743709 148 140 129
-0.262607 1.679947 -0.749781 148 140 129
-0.25446 1.69655 -0.756018 146 138 127
-0.246069 1.696259 -0.755435 145 137 126
-0.237684 1.700981 -0.756876 143 133 121
-0.229242 1.707845 -0.759181 126 117 102
-0.220738 1.714366 -0.761348 95 86 71
-0.212046 1.729176 -0.766851 92 76 62
-0.203164 1.746176 -0.77323 86 70 56
-0.19436 1.753172 -0.775586 82 66 52
-0.185137 1.771879 -0.782644 79 63 49
-0.175882 1.786114 -0.787902 77 60 46
-0.166778 1.792868 -0.790157 47 23 11
-0.157653 1.798505 -0.791966 44 20 8
-0.148198 1.80956 -0.795947 45 22 8
-0.138806 1.81734 -0.798616 45 22 8
-0.129464 1.822845 -0.800376 50 27 13
-0.119122 1.842889 -0.807951 54 31 17
-0.109674 1.847057 -0.809177 57 35 21
-0.100268 1.84997 -0.809906 61 35 22
-0.090451 1.857538 -0.812496 62 36 23
-0.081416 1.854816 -0.810983 64 38 25
-0.070572 1.87246 -0.817595 63 37 24
-0.060358 1.881407 -0.82074 62 36 23
-0.05093 1.881394 -0.820318 61 35 22
-0.040976 1.886248 -0.821839 63 37 24
-0.030747 1.893002 -0.824118 62 36 23
-0.021578 1.889751 -0.822423 62 36 23
-0.011601 1.893352 -0.823457 61 35 22
-0.002379 1.89044 -0.821909 60 35 22
0.005489 1.877156 -0.816251 60 35 22
0.010957 1.846914 -0.803876 60 34 22
0.01613 1.816599 -0.79149 60 34 21
0.033105 1.805772 -0.786496 59 33 20
0.04615 1.829956 -0.795729 58 33 20
0.060791 1.862357 -0.80821 57 32 20
0.072291 1.873623 -0.812324 57 32 19
0.080607 1.865419 -0.80874 56 31 19
0.086132 1.84169 -0.799029 55 31 18
0.095197 1.838677 -0.797514 54 30 17
0.11021 1.867529 -0.808587 53 30 17
0.126268 1.900084 -0.821116 53 29 16
0.138727 1.912503 -0.825694 52 29 16
0.149898 1.917764 -0.827449 51 28 16
0.161253 1.923494 -0.829391 50 26 14
0.171166 1.922042 -0.828504 51 27 15
0.181546 1.922668 -0.828439 48 24 12
0.192165 1.924212 -0.828738 49 25 13
0.202204 1.923048 -0.827973 50 26 14
0.212855 1.924451 -0.828219 49 27 14
0.222602 1.921946 -0.826929 47 25 12
0.232099 1.918463 -0.825255 49 27 14
0.240918 1.912379 -0.822559 48 26 13
0.251452 1.913212 -0.822581 48 26 13
0.26152 1.912217 -0.821882 46 24 11
0.2749 1.923673 -0.826066 48 26 13
0.283021 1.915397 -0.822502 47 25 12
0.292458 1.912233 -0.820941 46 24 11
0.302408 1.911075 -0.82016 46 24 11
0.312443 1.910354 -0.819543 50 28 15
0.321627 1.90689 -0.817844 45 23 12
0.330685 1.90328 -0.816079 39 20 6
0.338783 1.89682 -0.81319 38 18 7
0.348775 1.8969 -0.812848 39 21 9
0.358252 1.895567 -0.811942 36 18 6
0.368051 1.895542 -0.811532 37 19 7
0.375647 1.889025 -0.808573 37 19 7
0.383893 1.884976 -0.806564 47 27 14
0.393446 1.885271 -0.806233 47 27 15
0.40441 1.890044 -0.807631 47 28 16
0.412509 1.88675 -0.805865 47 29 18
-0.879022 0.660557 -0.392217 35 16 0
-0.875989 0.662956 -0.392967 37 18 3
-0.873874 0.666412 -0.394209 36 17 2
-0.87195 0.67018 -0.395582 36 17 2
-0.868192 0.672122 -0.39605 36 19 3
-0.86185 0.671376 -0.395202 35 18 2
-0.857151 0.672427 -0.395208 34 18 2
-0.855469 0.676816 -0.396809 33 20 4
-0.851592 0.678898 -0.397282 21 17 6
-0.847433 0.680723 -0.397619 41 41 33
-0.990787 0.856208 -0.48046 7 10 3
-0.993187 0.867346 -0.485071 12 14 9
-1.001234 0.885216 -0.492867 8 10 5
-0.999856 0.892436 -0.49556 6 8 3
-1.001333 0.903139 -0.499893 1 3 0
-0.999135 0.909655 -0.50222 10 11 6
-0.987489 0.904908 -0.499205 74 70 61
-0.969372 0.89216 -0.492419 106 100 88
-0.963188 0.893738 -0.492414 105 99 87
-0.958266 0.896859 -0.493135 108 102 88
-0.953381 0.900033 -0.49388 106 100 86
-0.950781 0.9061 -0.495982 109 103 89
-0.946749 0.910397 -0.49725 107 101 87
-0.941398 0.913009 -0.49773 111 105 89
-0.936327 0.91597 -0.498376 112 106 92
-0.931947 0.919829 -0.499443 112 106 94
-0.928975 0.92557 -0.501386 115 109 95
-0.924963 0.929952 -0.502698 113 107 93
-0.921004 0.934419 -0.504051 114 108 96
-0.917345 0.939312 -0.505603 114 108 94
-0.911723 0.941495 -0.505905 112 106 92
-0.908455 0.946953 -0.507723 113 107 93
-0.903729 0.950371 -0.508603 115 109 95
-0.899152 0.953993 -0.50958 114 108 94
-0.895479 0.95892 -0.511162 112 106 92
-0.891236 0.963035 -0.512372 111 105 91
-0.886552 0.966498 -0.513289 112 106 92
-0.883689 0.972686 -0.515455 113 107 93
-0.881307 0.979655 -0.517979 111 105 91
-0.876754 0.983364 -0.519017 113 107 91
-0.8723 0.987226 -0.520128 110 104 88
-0.867106 0.98993 -0.520718 113 107 91
-0.861564 0.992061 -0.521053 114 108 92
-0.857992 0.997315 -0.522809 115 109 93
-0.853647 1.001355 -0.524018 116 110 94
-0.849508 1.005743 -0.525388 115 109 93
-0.84724 1.01325 -0.528168 117 111 95
-0.84186 1.015638 -0.52864 118 112 96
-0.839765 1.023567 -0.531611 119 113 97
-0.833173 1.023896 -0.531165 121 114 98
-0.831056 1.031911 -0.534177 122 115 99
-0.825628 1.034233 -0.534635 121 114 98
-0.821301 1.03849 -0.535963 124 117 101
-0.817634 1.043954 -0.537835 124 118 102
-0.812929 1.047594 -0.538892 125 119 103
-0.80891 1.052505 -0.54052 127 121 105
-0.805154 1.057952 -0.542388 127 121 105
-0.801599 1.063839 -0.544453 128 122 106
-0.796244 1.066373 -0.545028 128 122 106
-0.79005 1.067285 -0.544886 130 124 108
-0.78718 1.07463 -0.547603 130 124 108
-0.783256 1.080012 -0.549448 132 126 110
-0.778975 1.084745 -0.551007 132 125 109
-0.774667 1.089477 -0.552567 134 126 113
-0.769499 1.092505 -0.553375 135 128 112
-0.765715 1.098414 -0.555457 136 129 113
-0.761161 1.102793 -0.556864 137 130 114
-0.756214 1.106388 -0.557928 138 132 116
-0.751403 1.110307 -0.559135 138 132 116
-0.747464 1.11617 -0.561197 139 133 117
-0.742498 1.119855 -0.562304 142 135 119
-0.738589 1.125948 -0.564467 140 133 117
-0.734445 1.131611 -0.566441 140 134 120
-0.730724 1.138341 -0.568881 140 134 120
-0.725747 1.142267 -0.570094 141 135 121
-0.72091 1.146576 -0.571475 142 136 120
-0.717115 1.153445 -0.573973 142 136 120
-0.710989 1.154778 -0.574058 142 136 120
-0.705688 1.158131 -0.575024 144 138 122
-0.702094 1.165793 -0.577865 145 139 125
-0.697626 1.171402 -0.579811 144 138 124
-0.693155 1.177115 -0.581801 146 140 126
-0.687964 1.181055 -0.583022 146 140 126
-0.682128 1.183349 -0.58353 147 141 127
-0.679794 1.195093 -0.588128 147 141 129
-0.674453 1.198915 -0.589295 148 142 130
-0.668587 1.201338 -0.589859 148 142 130
-0.663849 1.206971 -0.591809 148 142 130
-0.66026 1.216022 -0.59523 151 145 133
-0.655401 1.221611 -0.597156 151 145 133
-0.64992 1.225484 -0.598343 150 144 132
-0.644322 1.229074 -0.599408 152 146 134
-0.641496 1.241228 -0.60415 152 146 132
-0.635631 1.244267 -0.604975 150 144 132
-0.629987 1.248056 -0.606122 151 145 133
-0.624676 1.252995 -0.607761 151 145 133
-0.619468 1.258391 -0.609595 152 146 132
-0.615324 1.267491 -0.61301 152 146 132
-0.609348 1.270622 -0.613871 151 145 131
-0.60529 1.280473 -0.617601 152 146 132
-0.599724 1.285306 -0.619186 151 146 132
-0.594474 1.291405 -0.621309 152 146 133
-0.589591 1.299038 -0.624082 152 146 133
-0.583629 1.302863 -0.625233 152 146 133
-0.577686 1.306856 -0.626454 152 146 133
-0.571586 1.310337 -0.627457 152 146 134
-0.567008 1.31999 -0.631079 153 147 134
-0.56117 1.324851 -0.632664 153 147 134
-0.555125 1.328995 -0.633945 153 147 134
-0.55004 1.33736 -0.637011 153 147 134
-0.543899 1.34143 -0.638256 154 147 135
-0.538403 1.348511 -0.640773 154 148 135
-0.532976 1.356178 -0.643535 154 148 135
-0.526858 1.360909 -0.645055 155 148 136
-0.521275 1.36838 -0.647729 155 149 136
-0.515854 1.37697 -0.65087 155 149 137
-0.510013 1.383804 -0.653269 156 149 137
-0.504193 1.391048 -0.655837 156 149 137
-0.49826 1.398007 -0.658283 156 150 138
-0.492176 1.404461 -0.660514 155 149 135
-0.485803 1.409567 -0.662178 155 149 137
-0.479877 1.417518 -0.665032 154 148 136
-0.473591 1.423704 -0.667145 156 150 138
-0.467251 1.42987 -0.669247 156 150 138
-0.461829 1.442241 -0.67394 156 150 138
-0.455316 1.448134 -0.675923 161 153 142
-0.44871 1.453705 -0.677769 159 151 140
-0.442087 1.459461 -0.67969 159 151 140
-0.43556 1.466274 -0.682051 160 152 141
-0.42889 1.47242 -0.684132 161 153 142
-0.422448 1.48079 -0.687136 161 153 142
-0.416185 1.491263 -0.691012 160 152 141
-0.409713 1.500733 -0.694466 157 150 139
-0.403199 1.510584 -0.698076 157 150 139
-0.396048 1.515202 -0.699511 157 150 139
-0.388915 1.520343 -0.701163 157 149 138
-0.381538 1.52334 -0.701926 157 149 138
-0.37565 1.543181 -0.70966 157 149 138
-0.368757 1.553365 -0.713391 157 148 138
-0.361394 1.558797 -0.715155 156 148 137
-0.353985 1.564204 -0.716909 156 147 137
-0.346838 1.574029 -0.720485 155 146 136
-0.339478 1.581936 -0.723267 154 145 135
-0.33229 1.59392 -0.727727 152 144 133
-0.324844 1.603213 -0.731076 151 143 132
-0.317319 1.612624 -0.73447 150 141 131
-0.309814 1.624412 -0.738839 148 140 130
-0.301986 1.630837 -0.741002 147 138 128
-0.294104 1.637339 -0.743196 146 138 127
-0.286218 1.645697 -0.74615 144 136 125
-0.278213 1.652375 -0.748415 146 138 127
-0.270119 1.657601 -0.750085 140 132 121
-0.262169 1.676004 -0.757149 142 134 121
-0.25393 1.682978 -0.759532 120 113 97
-0.245699 1.705794 -0.768391 87 75 61
-0.237251 1.709214 -0.769318 81 65 50
-0.228767 1.713126 -0.770447 67 49 35
-0.220166 1.724855 -0.774768 63 40 26
-0.211478 1.734737 -0.778333 81 64 50
-0.202658 1.746252 -0.782563 77 61 46
-0.193793 1.754952 -0.785645 59 31 19
-0.184893 1.761917 -0.788021 53 27 14
-0.176172 1.761689 -0.787473 47 21 8
-0.167375 1.763347 -0.787696 48 21 10
-0.157999 1.777413 -0.792962 48 22 9
-0.148021 1.800613 -0.801933 48 22 9
-0.138627 1.808874 -0.804838 53 27 14
-0.129137 1.817252 -0.807791 53 30 16
-0.119025 1.833781 -0.814047 57 34 20
-0.109989 1.832423 -0.813059 57 34 20
-0.100517 1.836934 -0.814451 61 35 22
-0.091567 1.834209 -0.81292 62 36 23
-0.081121 1.849276 -0.818587 62 36 23
-0.071223 1.856417 -0.821051 62 36 23
-0.060641 1.869846 -0.826055 63 37 24
-0.050862 1.873738 -0.827211 64 38 25
-0.041563 1.872525 -0.826313 63 37 24
-0.032554 1.868618 -0.824334 62 34 22
-0.021571 1.882034 -0.829342 61 34 23
-0.011 1.890724 -0.832447 61 35 22
-0.000751 1.895968 -0.834167 62 36 23
0.006991 1.881404 -0.827923 59 33 20
0.015956 1.876784 -0.825689 60 34 21
0.024859 1.87188 -0.823349 59 34 21
0.031307 1.850308 -0.814321 59 33 21
0.033333 1.800725 -0.794062 58 33 20
0.040758 1.788853 -0.78896 58 33 20
0.063578 1.814733 -0.798678 56 31 19
0.085712 1.833048 -0.805368 55 30 18
0.101854 1.869053 -0.819464 54 30 17
0.116923 1.897146 -0.830386 53 29 16
0.127149 1.898405 -0.83057 52 29 16
0.137403 1.899582 -0.830724 50 27 13
0.148485 1.904629 -0.832429 49 27 14
0.158893 1.906043 -0.832685 49 27 14
0.169555 1.908438 -0.833335 50 28 15
0.179816 1.908767 -0.833163 51 27 15
0.190204 1.909528 -0.833165 49 25 13
0.200458 1.909569 -0.832882 49 27 14
0.210372 1.908072 -0.831987 48 26 13
0.220833 1.908838 -0.831995 50 28 15
0.230538 1.906438 -0.830742 49 27 14
0.239409 1.900777 -0.828189 48 26 12
0.249446 1.899862 -0.827526 48 26 13
0.26049 1.90282 -0.828402 47 25 12
0.269627 1.898545 -0.826396 48 26 13
0.28051 1.900862 -0.827008 50 26 14
0.290482 1.899877 -0.826301 48 26 13
0.299377 1.895216 -0.824127 46 24 11
0.309463 1.894951 -0.823692 45 23 12
0.318927 1.892709 -0.822464 42 20 9
0.327995 1.889385 -0.820796 40 21 7
0.337287 1.887095 -0.819528 38 19 5
0.346741 1.885607 -0.818567 37 19 7
0.358019 1.890177 -0.819991 36 18 4
0.3678 1.890196 -0.819597 36 18 6
0.376387 1.886834 -0.817849 38 20 8
0.383132 1.878322 -0.814048 38 20 8
0.392336 1.877704 -0.813353 35 17 5
0.401517 1.877384 -0.812758 34 16 4
0.40829 1.870477 -0.809544 37 19 7
-0.881362 0.661876 -0.397604 39 20 3
-0.877764 0.663695 -0.398078 37 18 1
-0.875711 0.667211 -0.399368 35 16 0
-0.874028 0.671232 -0.400884 36 17 0
-0.872159 0.675176 -0.40234 35 18 2
-0.865737 0.674373 -0.401448 35 18 2
-0.859332 0.673612 -0.400562 34 18 2
-0.855987 0.676197 -0.401301 32 19 3
-0.853224 0.679495 -0.402371 23 19 7
-0.851198 0.683691 -0.403863 34 34 24
-0.857872 0.697718 -0.410119 20 21 15
-1.00194 0.884437 -0.498668 10 12 7
-0.999849 0.890819 -0.500988 6 9 2
-0.999218 0.899022 -0.504172 2 4 0
-1.000739 0.909918 -0.508635 8 9 4
-0.992121 0.908833 -0.507325 65 62 53
-0.97759 0.900513 -0.502549 106 100 88
-0.963215 0.892165 -0.497776 107 101 87
-0.95887 0.895998 -0.498839 106 100 86
-0.954331 0.899611 -0.499794 108 102 88
-0.951064 0.904844 -0.501519 108 102 88
-0.948036 0.910425 -0.503406 109 103 89
-0.942543 0.912876 -0.503806 111 105 89
-0.936475 0.914555 -0.503843 112 106 90
-0.931248 0.917302 -0.504389 112 106 92
-0.927963 0.922617 -0.506151 113 107 91
-0.926014 0.929763 -0.508774 112 106 90
-0.922775 0.935227 -0.510604 112 106 90
-0.918337 0.939077 -0.511677 111 105 89
-0.913775 0.942756 -0.512673 113 107 91
-0.909022 0.946161 -0.513544 113 107 91
-0.905197 0.950872 -0.51503 112 106 92
-0.899862 0.953435 -0.515517 112 106 92
-0.895182 0.956919 -0.516438 112 106 92
-0.891345 0.961629 -0.517934 111 105 91
-0.887586 0.966472 -0.519495 111 105 91
-0.885016 0.973118 -0.521893 110 104 88
-0.881771 0.978803 -0.523847 111 105 91
-0.877646 0.983183 -0.5252 111 105 91
-0.87233 0.985733 -0.525713 112 106 90
-0.866907 0.988088 -0.526141 112 106 90
-0.862691 0.992325 -0.527441 113 107 91
-0.857168 0.994483 -0.52779 114 108 94
-0.853834 1.00015 -0.529754 116 110 96
-0.849623 1.004431 -0.531086 116 110 94
-0.847697 1.012507 -0.534156 116 110 94
-0.843517 1.016921 -0.535552 116 110 94
-0.838425 1.019813 -0.536257 118 112 96
-0.835772 1.026869 -0.538864 120 113 97
-0.831332 1.030918 -0.540102 122 115 99
-0.826237 1.033839 -0.540831 122 116 100
-0.820658 1.035896 -0.541172 124 117 101
-0.817718 1.042657 -0.54365 123 117 101
-0.813681 1.047516 -0.545268 126 120 104
-0.809427 1.05202 -0.546726 126 120 104
-0.805687 1.057514 -0.548634 125 119 103
-0.801746 1.062694 -0.550401 128 121 105
-0.797201 1.066781 -0.551677 129 123 107
-0.792181 1.069985 -0.552558 129 123 107
-0.787449 1.073758 -0.553698 130 124 108
-0.783045 1.078207 -0.555143 133 127 111
-0.778801 1.083016 -0.556752 133 125 112
-0.773949 1.086655 -0.557837 134 127 111
-0.770005 1.092176 -0.559768 136 129 113
-0.764979 1.095533 -0.560731 134 128 112
-0.76098 1.101065 -0.562667 135 129 113
-0.756552 1.105766 -0.564233 137 131 115
-0.752229 1.110752 -0.565927 136 130 114
-0.747037 1.113914 -0.566809 138 132 116
-0.74239 1.118301 -0.568238 137 131 117
-0.739155 1.125907 -0.571097 140 134 120
-0.735372 1.132413 -0.573467 139 133 119
-0.730398 1.136298 -0.574673 142 136 122
-0.725512 1.140436 -0.575992 140 134 120
-0.720921 1.145327 -0.577645 141 135 119
-0.716233 1.150063 -0.57923 142 136 120
-0.711058 1.153693 -0.580326 142 136 120
-0.705472 1.156353 -0.580996 143 137 123
-0.702401 1.165325 -0.584447 143 137 123
-0.697669 1.170285 -0.58613 143 137 121
-0.692857 1.175128 -0.58776 144 138 124
-0.687708 1.17918 -0.589042 146 140 126
-0.683945 1.186973 -0.591967 145 139 125
-0.680209 1.195018 -0.594999 146 140 126
-0.674761 1.198577 -0.596063 147 141 127
-0.669256 1.202034 -0.597082 148 142 130
-0.663565 1.205015 -0.597894 149 143 131
-0.659312 1.212161 -0.600526 150 144 132
-0.65484 1.218844 -0.602953 150 144 132
-0.650261 1.225375 -0.605312 149 143 131
-0.644873 1.229629 -0.606676 151 145 133
-0.641269 1.239436 -0.610457 150 144 130
-0.635284 1.242105 -0.611129 150 144 132
-0.629614 1.245808 -0.612251 150 144 132
-0.6246 1.251701 -0.614323 150 144 132
-0.620345 1.260241 -0.617541 150 144 130
-0.615111 1.265759 -0.619446 150 144 130
-0.610136 1.272305 -0.621794 150 144 130
-0.604768 1.277675 -0.623632 150 144 130
-0.599393 1.283168 -0.62552 151 145 131
-0.595097 1.292706 -0.629154 151 145 132
-0.589131 1.296415 -0.630268 151 145 132
-0.583856 1.302807 -0.632538 151 145 132
-0.577637 1.305784 -0.633335 151 145 132
-0.572407 1.31269 -0.635823 151 145 133
-0.567598 1.321509 -0.63913 152 146 133
-0.561337 1.324718 -0.640024 152 146 133
-0.555558 1.330018 -0.641814 152 146 133
-0.550426 1.33825 -0.64486 152 146 133
-0.544617 1.343843 -0.646772 153 147 134
-0.53814 1.346637 -0.647484 153 147 134
-0.531714 1.349734 -0.648326 153 147 134
-0.525767 1.355161 -0.650163 154 147 135
-0.520429 1.363721 -0.653336 154 148 135
-0.5151 1.372691 -0.65668 155 148 136
-0.509887 1.382654 -0.660443 155 149 136
-0.504069 1.389933 -0.663059 155 149 136
-0.498337 1.398001 -0.666007 156 149 137
-0.492095 1.403645 -0.667921 154 148 134
-0.485629 1.408269 -0.6694 155 149 137
-0.479605 1.415672 -0.672058 152 146 134
-0.473434 1.422562 -0.674496 155 149 137
-0.467129 1.428979 -0.67673 153 147 135
-0.460558 1.434023 -0.678381 156 150 138
-0.455247 1.447694 -0.683681 158 150 139
-0.44858 1.452908 -0.685399 158 150 139
-0.442017 1.45916 -0.687554 159 151 140
-0.435265 1.464386 -0.689274 160 152 141
-0.428548 1.470194 -0.691239 160 152 141
-0.422589 1.482439 -0.695915 161 153 140
-0.416095 1.491157 -0.6991 159 151 138
-0.409368 1.498512 -0.701709 156 149 138
-0.402775 1.507662 -0.705071 156 148 137
-0.395916 1.515042 -0.707685 156 148 137
-0.388679 1.519267 -0.708973 156 148 137
-0.381611 1.525617 -0.711152 156 148 137
-0.374591 1.533093 -0.713802 156 147 136
-0.36905 1.558851 -0.724109 155 146 136
-0.361436 1.561647 -0.724791 154 146 135
-0.353871 1.565341 -0.725849 153 145 134
-0.346989 1.579277 -0.731189 152 144 133
-0.339513 1.586023 -0.733521 151 143 132
-0.331942 1.592134 -0.735587 150 141 131
-0.324327 1.598428 -0.737728 149 140 130
-0.31692 1.61005 -0.74209 147 139 128
-0.309514 1.624151 -0.74748 146 138 127
-0.301696 1.631181 -0.749923 143 135 123
-0.293779 1.637158 -0.751928 142 134 121
-0.285972 1.648732 -0.756258 141 133 120
-0.2779 1.653919 -0.757933 115 109 95
-0.269708 1.655286 -0.758023 90 81 66
-0.261563 1.660643 -0.759772 78 66 50
-0.253513 1.681299 -0.767861 67 51 36
-0.24527 1.704283 -0.776906 65 42 28
-0.236813 1.707648 -0.777825 68 40 26
-0.228299 1.715529 -0.780612 67 37 26
-0.219764 1.718043 -0.781182 68 38 27
-0.21138 1.709225 -0.777074 66 36 25
-0.202332 1.737149 -0.788141 64 34 23
-0.193584 1.742306 -0.789806 59 31 19
-0.184789 1.747251 -0.791386 53 25 13
-0.175365 1.768512 -0.79969 55 29 16
-0.166581 1.768585 -0.799265 50 24 11
-0.157867 1.766981 -0.798154 48 21 10
-0.148878 1.771069 -0.799389 51 25 12
-0.139283 1.785261 -0.80478 51 25 12
-0.128672 1.813831 -0.816074 55 29 16
-0.119065 1.822527 -0.819202 59 33 20
-0.109692 1.826514 -0.8204 60 34 21
-0.101056 1.820051 -0.817317 61 35 22
-0.091929 1.820353 -0.817014 62 36 23
-0.081862 1.8315 -0.821158 62 36 23
-0.070971 1.850381 -0.828468 61 35 22
-0.060859 1.858938 -0.831552 61 35 22
-0.050964 1.864327 -0.833343 61 35 22
-0.042794 1.85267 -0.828172 61 35 22
-0.032741 1.858967 -0.830345 60 34 21
-0.022785 1.863698 -0.831882 61 34 23
-0.013116 1.865483 -0.832221 61 35 22
-0.002899 1.871315 -0.834215 60 33 22
0.00712 1.875 -0.835338 61 35 22
0.016562 1.874003 -0.834558 60 34 21
0.025709 1.87081 -0.832891 61 35 22
0.034003 1.861838 -0.828879 63 37 24
0.043032 1.858156 -0.827028 58 33 20
0.053088 1.861099 -0.827878 57 32 20
0.060745 1.848855 -0.822561 57 32 19
0.067422 1.831344 -0.815113 56 31 19
0.086631 1.887485 -0.837586 55 30 18
0.096654 1.88839 -0.837624 54 30 17
0.107892 1.89573 -0.840278 53 29 17
0.117713 1.894959 -0.839645 57 31 18
0.127232 1.892505 -0.838335 58 32 19
0.136759 1.890074 -0.837039 50 27 13
0.146525 1.888797 -0.836217 52 28 16
0.156722 1.889511 -0.836204 49 25 13
0.167521 1.892859 -0.837262 48 26 13
0.178172 1.895253 -0.837934 48 26 13
0.1881 1.894212 -0.83722 48 26 13
0.198285 1.894234 -0.836937 49 27 14
0.208148 1.892805 -0.836069 49 27 14
0.219162 1.896129 -0.837123 48 26 13
0.229243 1.895473 -0.836567 48 26 13
0.238417 1.891209 -0.834555 47 25 12
0.24721 1.885625 -0.832009 49 25 13
0.258331 1.889109 -0.83312 48 24 12
0.268846 1.890212 -0.833266 51 27 15
0.278838 1.889402 -0.832634 48 24 12
0.287804 1.885012 -0.830556 48 24 12
0.297116 1.882088 -0.829061 45 23 10
0.306279 1.878867 -0.827439 46 24 11
0.315915 1.877498 -0.826553 45 23 12
0.326327 1.878915 -0.826777 44 22 9
0.33517 1.875343 -0.824983 41 22 8
0.34553 1.876974 -0.825267 39 21 7
