ply
format ascii 1.0
comment ---
element vertex 1332
property float x
property float y
property float z
property uchar red
property uchar green
property uchar blue
element face 0
property list uchar uint vertex_indices
end_header
0.411534 1.873386 -1.4575 26 23 14
0.420544 1.86313 -1.453172 29 25 16
0.430246 1.856768 -1.451533 31 25 19
0.439967 1.850703 -1.450097 32 25 20
0.448976 1.84145 -1.446441 32 25 19
0.458813 1.836346 -1.445669 33 27 19
0.468083 1.828818 -1.443204 33 26 18
0.474196 1.807735 -1.431232 34 27 19
0.483453 1.800941 -1.429251 33 25 16
0.492838 1.794868 -1.427773 34 25 16
0.50127 1.785076 -1.423669 35 23 15
0.51124 1.781688 -1.424079 36 22 13
0.520993 1.777473 -1.42391 38 17 8
0.525538 1.753603 -1.409789 41 16 7
0.535256 1.749786 -1.409879 42 14 5
0.545562 1.748125 -1.411511 43 13 4
0.555485 1.745037 -1.412136 43 12 3
0.56393 1.736818 -1.409091 43 11 2
0.57364 1.7331 -1.409268 45 12 3
0.330522 0.851307 -0.780584 40 13 4
0.335136 0.848444 -0.779979 41 12 2
0.338512 0.841813 -0.776637 41 12 1
0.34435 0.842797 -0.778824 41 11 1
0.344618 0.827172 -0.768909 42 12 1
0.348978 0.823957 -0.768023 45 12 1
0.353696 0.821817 -0.767922 47 13 1
0.358306 0.819386 -0.76761 53 16 3
0.363146 0.817611 -0.767781 59 20 5
0.367549 0.81465 -0.76708 68 26 11
0.371952 0.811725 -0.766405 81 36 20
0.376266 0.808606 -0.765585 88 40 24
0.380556 0.805464 -0.764747 94 44 26
0.384785 0.80221 -0.763824 103 48 30
0.388587 0.797934 -0.762136 107 50 32
0.391461 0.79146 -0.758797 109 52 31
0.396868 0.791244 -0.760139 112 54 33
0.403211 0.793203 -0.763126 113 54 33
0.409417 0.794717 -0.765795 110 52 30
0.414192 0.792829 -0.765909 111 53 31
0.420114 0.793541 -0.767996 113 54 32
0.422735 0.786793 -0.764431 115 54 33
0.430414 0.791323 -0.769437 116 56 32
0.435096 0.789158 -0.769362 116 56 32
0.438962 0.785251 -0.767958 117 57 32
0.443625 0.783074 -0.767877 118 58 32
0.44691 0.778039 -0.765601 118 58 32
0.451457 0.775671 -0.765374 119 59 33
0.456825 0.774967 -0.766435 119 58 33
0.462338 0.77451 -0.767696 120 59 33
0.467791 0.77389 -0.768842 120 60 33
0.472664 0.772103 -0.769089 120 59 32
0.476715 0.768734 -0.768106 122 60 34
0.482346 0.768372 -0.769477 121 59 34
0.487193 0.766502 -0.769676 120 59 33
0.491293 0.763248 -0.768793 121 60 34
0.495622 0.760435 -0.768257 119 59 34
0.501144 0.759767 -0.769421 119 59 35
0.503833 0.754056 -0.766597 119 59 34
0.508576 0.752006 -0.766675 117 57 33
0.516223 0.754942 -0.770733 117 57 34
0.521125 0.753079 -0.770984 114 56 34
0.525163 0.749753 -0.77007 112 54 32
0.527016 0.742831 -0.766266 110 52 30
0.52666 0.732406 -0.759625 105 47 25
0.531982 0.731341 -0.76052 99 41 19
0.535281 0.727015 -0.758782 93 36 15
0.53954 0.724243 -0.758306 91 33 13
0.543739 0.72138 -0.75776 88 31 11
0.548164 0.71887 -0.757508 89 32 11
0.553187 0.717263 -0.758003 88 31 11
0.558982 0.716787 -0.759438 84 31 9
0.563457 0.7143 -0.759232 81 32 11
0.567014 0.71046 -0.757916 80 29 9
0.569868 0.705625 -0.755774 76 28 9
0.575987 0.705508 -0.757556 70 27 11
0.582562 0.70597 -0.75984 56 22 8
0.583476 0.698442 -0.75546 48 21 6
0.58773 0.695631 -0.755024 25 12 1
0.593254 0.694549 -0.756052 15 9 1
0.602621 0.698605 -0.76144 14 8 4
0.606643 0.695367 -0.76069 27 17 10
0.610568 0.692005 -0.759841 72 33 15
0.614242 0.688318 -0.75872 86 37 14
0.619993 0.687315 -0.759902 93 41 19
0.626799 0.687606 -0.762215 97 45 21
0.634737 0.689239 -0.765712 99 48 23
0.641721 0.689571 -0.76812 103 52 25
0.647406 0.688218 -0.769097 103 51 24
0.650468 0.683625 -0.767275 104 52 27
0.651534 0.676654 -0.763376 102 50 26
0.660485 0.67914 -0.767752 101 49 25
0.663335 0.674314 -0.765742 96 46 23
0.665885 0.669164 -0.763447 85 40 19
0.666923 0.66231 -0.759641 63 25 10
0.670487 0.6584 -0.758438 34 15 4
0.674151 0.654608 -0.757345 22 10 2
0.67888 0.652002 -0.757321 15 9 2
0.686646 0.65271 -0.76029 10 7 1
0.687382 0.645677 -0.756312 7 6 1
0.69315 0.644127 -0.757282 5 5 0
0.696438 0.639891 -0.755833 7 7 2
0.700767 0.636762 -0.755395 5 6 1
0.705102 0.633626 -0.75496 5 6 1
0.709559 0.630602 -0.754638 5 7 2
0.711418 0.624925 -0.751876 5 7 2
0.710762 0.616766 -0.746801 6 7 2
0.713594 0.612174 -0.745016 4 6 1
0.718047 0.6092 -0.744737 6 7 2
0.721187 0.604939 -0.743256 5 6 1
0.724505 0.60087 -0.74195 5 7 2
0.727078 0.59611 -0.739985 6 7 2
0.729954 0.59167 -0.738311 6 7 2
0.730807 0.58538 -0.73486 6 7 2
0.736393 0.583515 -0.735618 5 7 2
0.740692 0.58046 -0.735235 4 6 2
0.745698 0.578049 -0.735467 5 7 4
0.752102 0.576878 -0.736897 5 7 2
0.754923 0.572534 -0.735236 5 7 2
0.754913 0.565775 -0.731185 4 6 1
0.754287 0.558592 -0.726667 6 8 3
0.755684 0.55325 -0.723907 5 7 2
0.761803 0.551965 -0.725124 7 9 4
0.770754 0.553042 -0.728675 7 9 4
0.772193 0.547886 -0.725998 9 11 8
0.775717 0.544523 -0.725065 9 11 8
0.779851 0.541714 -0.724646 8 10 6
0.781057 0.536621 -0.721875 8 10 4
0.783982 0.532993 -0.720526 6 8 4
0.789871 0.531766 -0.72157 6 8 4
0.800364 0.534146 -0.726263 5 7 2
0.801813 0.529558 -0.723782 4 6 1
0.809612 0.529909 -0.72632 8 8 4
0.865256 0.566292 -0.766099 30 24 16
0.88456 0.574932 -0.777294 101 58 31
0.890636 0.573682 -0.778196 109 60 31
0.895275 0.571447 -0.778007 112 63 31
0.897947 0.567874 -0.776345 114 65 34
0.897143 0.561915 -0.772093 115 66 36
-0.339942 1.432743 -1.013995 93 97 84
-0.332974 1.429372 -1.013915 37 41 28
-0.325434 1.424142 -1.012697 35 38 27
-0.318951 1.423467 -1.014183 26 29 22
-0.333069 1.507014 -1.066328 21 24 18
-0.305189 1.50967 -1.075659 19 21 16
-0.261538 1.411123 -1.021103 15 17 12
-0.260835 1.44267 -1.042099 15 17 12
-0.240716 1.456657 -1.055823 8 13 7
-0.242606 1.508492 -1.089443 7 9 4
-0.232542 1.498157 -1.084798 4 6 1
-0.218936 1.514656 -1.098417 4 6 1
-0.211093 1.517949 -1.10216 4 6 1
-0.203504 1.523338 -1.107202 3 5 0
-0.185516 1.517368 -1.106849 3 5 0
-0.172826 1.549436 -1.130245 3 5 0
-0.163357 1.544347 -1.128748 2 4 1
-0.154455 1.543385 -1.129828 3 5 2
-0.147915 1.561717 -1.143039 3 5 2
-0.130142 1.562038 -1.146642 1 3 0
-0.116544 1.604209 -1.176751 1 3 0
-0.056512 1.668649 -1.230436 1 3 0
-0.047544 1.677738 -1.238141 1 4 1
-0.020553 1.716918 -1.26912 1 3 0
0.007764 1.752092 -1.297866 1 3 0
0.215911 2.001935 -1.506839 1 3 0
0.226497 1.993446 -1.50377 2 4 0
0.238495 2.001127 -1.511596 2 4 0
0.245319 1.954896 -1.483055 2 4 0
0.255085 1.941919 -1.476908 2 4 0
0.2662 1.942502 -1.479936 2 4 0
0.276655 1.937107 -1.478923 1 3 0
0.287898 1.93861 -1.482607 1 3 0
0.298202 1.932353 -1.481021 1 3 0
0.307845 1.921425 -1.476244 2 4 0
0.317437 1.910868 -1.471708 2 3 0
0.329182 1.916098 -1.47799 4 5 0
0.341483 1.924518 -1.486496 7 8 2
0.351038 1.914306 -1.482211 11 11 5
0.359387 1.897084 -1.473075 14 13 7
0.368815 1.887423 -1.469138 18 18 10
0.380326 1.890447 -1.473981 20 20 11
0.39158 1.891664 -1.477595 23 22 12
0.400661 1.880719 -1.472767 23 22 13
0.410495 1.874289 -1.471072 24 23 13
0.419666 1.864657 -1.467139 27 23 14
0.429069 1.856593 -1.464292 29 24 16
0.439234 1.852539 -1.464252 28 24 18
0.448353 1.843599 -1.460783 28 24 18
0.456349 1.829803 -1.453881 29 25 19
0.466387 1.825755 -1.453839 30 26 20
0.474695 1.81419 -1.448483 30 26 20
0.482033 1.798917 -1.440478 31 27 19
0.491765 1.794209 -1.439953 32 28 19
0.501068 1.787844 -1.43825 32 29 20
0.510079 1.780472 -1.435825 33 29 19
0.519186 1.773668 -1.433802 33 28 17
0.527653 1.764601 -1.430151 35 27 17
0.534293 1.749029 -1.421815 36 26 16
0.543977 1.74503 -1.42178 36 23 13
0.553336 1.73991 -1.420941 37 20 11
0.562101 1.732808 -1.418669 40 17 10
0.571614 1.728403 -1.418347 39 14 7
0.582495 1.728603 -1.421372 39 13 6
0.588512 1.712775 -1.412746 39 12 4
0.597024 1.705425 -1.410272 42 13 3
0.607753 1.70519 -1.412995 42 12 2
0.607963 1.672436 -1.391895 41 11 1
0.344019 0.842523 -0.78496 37 14 6
0.348321 0.838816 -0.783727 38 13 5
0.348963 0.824519 -0.774674 39 11 4
0.353262 0.82113 -0.773651 41 11 3
0.358009 0.819057 -0.773603 41 11 1
0.362625 0.816627 -0.773291 41 11 0
0.36757 0.815114 -0.773663 44 12 1
0.371257 0.810235 -0.771526 46 13 1
0.374986 0.805568 -0.769539 47 13 2
0.379135 0.802076 -0.768428 52 17 4
0.383635 0.799526 -0.768022 61 20 7
0.387595 0.795651 -0.766618 76 30 16
0.391081 0.790677 -0.76438 85 35 21
0.394613 0.785912 -0.762292 94 43 27
0.399096 0.783494 -0.761979 106 51 33
0.403278 0.78039 -0.761144 106 50 30
0.406507 0.775122 -0.758659 105 50 30
0.411919 0.774911 -0.760031 106 52 32
0.418007 0.776158 -0.762531 109 53 33
0.422104 0.772924 -0.761603 113 53 33
0.431582 0.7814 -0.769696 113 53 30
0.433867 0.774193 -0.765719 112 53 30
0.439674 0.774554 -0.767586 113 54 29
0.443896 0.771553 -0.766856 115 55 30
0.448072 0.768484 -0.766073 118 58 32
0.45263 0.766212 -0.765913 118 57 32
0.457264 0.764095 -0.765876 119 58 32
0.462266 0.762699 -0.76641 119 58 31
0.467046 0.760852 -0.766595 119 59 31
0.471866 0.759071 -0.766838 121 60 32
0.476723 0.757348 -0.767133 121 59 34
0.481526 0.75551 -0.767344 121 60 34
0.487124 0.75512 -0.76871 122 60 35
0.4894 0.748664 -0.765257 122 61 36
0.494084 0.746619 -0.765315 121 61 35
0.500509 0.747635 -0.767829 120 60 34
0.505441 0.745965 -0.768207 120 60 34
0.510614 0.744691 -0.768911 119 59 34
0.513098 0.738824 -0.765916 118 58 35
0.516865 0.735193 -0.764722 117 56 33
0.518935 0.728784 -0.761273 113 53 30
0.522923 0.725603 -0.760439 109 49 25
0.526998 0.72258 -0.759737 104 45 20
0.530881 0.719262 -0.758796 99 40 16
0.535377 0.716926 -0.758664 99 40 18
0.53969 0.714298 -0.758298 95 37 16
0.543067 0.710233 -0.756752 93 35 14
0.546568 0.706389 -0.755388 92 34 12
0.552783 0.706639 -0.757425 90 33 11
0.557858 0.705129 -0.758016 90 33 12
0.562086 0.70235 -0.757559 87 32 10
0.5663 0.699548 -0.757091 85 31 7
0.570246 0.696363 -0.756307 84 31 8
0.575014 0.694344 -0.756511 78 29 5
0.57871 0.690808 -0.755443 79 29 7
0.584708 0.69046 -0.757084 78 29 8
0.590019 0.689113 -0.757896 72 27 9
0.594124 0.686101 -0.757302 62 24 9
0.598408 0.683326 -0.756919 68 28 11
0.604784 0.683296 -0.758903 86 35 14
0.610555 0.682406 -0.760171 93 40 17
0.616766 0.682029 -0.761902 98 45 21
0.624391 0.683382 -0.76516 103 50 25
0.631749 0.684295 -0.768067 104 51 26
0.636236 0.68154 -0.767805 106 53 27
0.641789 0.680081 -0.768689 106 53 26
0.644984 0.675711 -0.767033 106 53 28
0.649847 0.673363 -0.767164 106 52 28
0.653863 0.669984 -0.766397 104 50 26
0.65981 0.668867 -0.767649 102 48 24
0.657874 0.658544 -0.760712 98 44 20
0.659724 0.652716 -0.757765 86 33 12
0.664743 0.650534 -0.758085 81 31 11
0.669223 0.647714 -0.757848 74 28 8
0.675358 0.646713 -0.759268 68 27 11
0.678781 0.642676 -0.757955 63 24 10
0.683357 0.639898 -0.757794 43 17 5
0.686191 0.63523 -0.755917 27 12 2
0.692868 0.634661 -0.757805 18 10 2
0.69746 0.631835 -0.757638 15 9 1
0.702562 0.62952 -0.757957 8 7 2
0.707954 0.627473 -0.758538 7 6 2
0.71199 0.624014 -0.757818 6 7 1
0.711386 0.615901 -0.752742 6 7 2
0.714099 0.611178 -0.750824 6 7 2
0.717539 0.607195 -0.749597 7 8 3
0.721207 0.603447 -0.748591 6 7 2
0.724102 0.598967 -0.746885 4 6 1
0.728089 0.59555 -0.746186 4 6 1
0.728948 0.589208 -0.742674 6 7 2
0.732825 0.585737 -0.741903 5 6 3
0.73853 0.583956 -0.74276 4 6 3
0.744567 0.582454 -0.743894 5 7 3
0.749265 0.579728 -0.743834 4 6 2
0.74523 0.569266 -0.736174 4 6 1
0.752265 0.568692 -0.738181 5 7 2
0.754125 0.563597 -0.735717 4 6 1
0.755324 0.558007 -0.732722 5 6 1
0.756701 0.552654 -0.729917 6 7 2
0.763497 0.551937 -0.731711 6 7 2
0.773763 0.554095 -0.736385 4 6 1
0.775726 0.549364 -0.734105 4 6 1
0.777746 0.544766 -0.731907 4 6 1
0.778077 0.538898 -0.728359 6 8 3
0.779652 0.534139 -0.725876 7 9 4
0.779508 0.528126 -0.722041 7 9 4
0.789606 0.530241 -0.726506 7 9 4
0.799468 0.532148 -0.73074 9 11 6
0.803246 0.529379 -0.730097 10 11 6
0.807876 0.527336 -0.730149 12 12 7
0.863009 0.563292 -0.769886 47 35 21
0.874165 0.565892 -0.77483 104 57 27
0.885133 0.568345 -0.779588 111 61 30
0.888809 0.565473 -0.778681 113 63 31
0.890088 0.560966 -0.775966 113 63 31
0.894387 0.558756 -0.775606 113 66 35
-0.345086 1.445648 -1.030452 110 114 100
-0.333281 1.423764 -1.019225 45 49 36
-0.327066 1.423512 -1.021013 35 38 28
-0.323306 1.433511 -1.028998 29 32 23
-0.33124 1.491664 -1.066254 21 24 17
-0.276439 1.470963 -1.066871 15 17 12
-0.238015 1.515354 -1.105079 7 9 4
-0.221398 1.515254 -1.108497 4 6 1
-0.199814 1.538954 -1.128525 3 5 2
-0.182277 1.537566 -1.13107 3 5 2
-0.174838 1.546571 -1.13846 2 4 1
-0.141592 1.563284 -1.155892 1 3 0
-0.11938 1.608445 -1.189919 1 3 0
-0.111838 1.625614 -1.202686 1 3 0
-0.090097 1.588573 -1.182469 1 3 0
-0.032469 1.714281 -1.27673 1 3 0
-0.003645 1.726679 -1.290761 1 3 1
0.172932 1.890788 -1.437494 0 1 0
0.186672 1.934619 -1.469561 0 2 0
0.19969 1.962167 -1.490739 2 4 0
0.210896 1.963212 -1.494039 2 4 0
0.221991 1.962677 -1.496287 2 4 0
0.230646 1.935369 -1.480332 3 5 0
0.2426 1.945061 -1.48955 3 5 0
0.253114 1.939501 -1.488392 3 5 0
0.263733 1.935332 -1.488188 2 4 0
0.274217 1.930225 -1.487348 2 4 0
0.286531 1.940787 -1.497279 1 3 0
0.297718 1.941218 -1.500281 1 3 0
0.308014 1.93462 -1.498453 2 4 0
0.31758 1.92304 -1.49318 2 4 0
0.327709 1.916198 -1.491174 1 3 0
0.338387 1.913438 -1.492001 1 3 0
0.347356 1.899556 -1.485102 3 4 0
0.357439 1.893532 -1.483658 3 4 0
0.366134 1.879315 -1.476493 5 5 1
0.375995 1.872747 -1.474657 6 7 1
0.389393 1.886577 -1.487122 9 10 4
0.398238 1.874289 -1.481294 12 13 6
0.408369 1.869466 -1.480703 19 18 11
0.418424 1.864378 -1.479929 23 21 14
0.427642 1.855221 -1.476281 25 23 15
0.437635 1.850219 -1.475567 26 24 17
0.443187 1.824227 -1.459951 26 25 17
0.452848 1.818488 -1.458686 26 24 17
0.463455 1.817165 -1.460569 29 25 18
0.474658 1.818375 -1.464276 30 26 19
0.481688 1.801523 -1.45507 30 26 19
0.490662 1.793466 -1.452141 31 28 19
0.500145 1.787725 -1.45087 32 28 19
0.509102 1.780017 -1.44818 32 28 19
0.517534 1.770481 -1.444164 33 29 18
0.526487 1.763216 -1.441778 34 29 18
0.53537 1.755872 -1.43933 35 29 19
0.543007 1.744189 -1.433721 34 29 19
0.551819 1.737039 -1.431395 34 28 19
0.561884 1.734413 -1.432368 36 27 19
0.570866 1.72807 -1.430629 37 26 18
0.579219 1.719751 -1.427437 37 24 16
0.587971 1.712935 -1.425341 37 22 14
0.595912 1.703658 -1.421426 35 18 10
0.602424 1.690117 -1.414349 36 17 8
0.612078 1.686647 -1.414699 36 15 5
0.616018 1.665897 -1.402236 38 13 4
0.631155 1.679026 -1.414914 38 12 3
0.641508 1.677604 -1.416809 40 11 3
0.650281 1.671586 -1.415284 42 11 2
0.649281 1.638188 -1.393254 42 11 1
0.362117 0.815682 -0.778854 38 14 5
0.366919 0.813756 -0.778921 38 12 3
0.371072 0.810103 -0.777687 40 12 2
0.374432 0.804431 -0.774925 40 11 1
0.378403 0.80046 -0.773441 42 12 2
0.382856 0.79778 -0.772933 42 12 2
0.387304 0.795116 -0.772437 42 11 1
0.39137 0.791535 -0.771243 47 14 3
0.394858 0.786612 -0.769019 47 13 3
0.39782 0.780534 -0.765901 50 15 3
0.402059 0.777572 -0.765167 55 17 3
0.406149 0.774298 -0.764191 65 24 8
0.409898 0.770292 -0.762649 79 34 18
0.414871 0.769081 -0.763266 89 41 25
0.420223 0.768682 -0.76452 96 44 27
0.422581 0.76174 -0.760693 103 47 29
0.426427 0.758121 -0.759442 106 49 30
0.431489 0.757112 -0.76023 107 50 29
0.438567 0.760257 -0.764282 109 53 29
0.442616 0.757056 -0.763371 112 53 29
0.447926 0.75643 -0.764488 114 54 29
0.453215 0.755719 -0.765548 116 55 30
0.457358 0.75272 -0.764806 117 57 30
0.461897 0.75051 -0.764691 117 57 30
0.466574 0.748566 -0.764791 118 59 32
0.471868 0.747774 -0.765817 119 58 33
0.476094 0.74496 -0.765235 120 59 34
0.480399 0.742304 -0.764782 121 60 35
0.485319 0.740772 -0.765236 122 61 35
0.489739 0.738326 -0.764961 120 60 34
0.496398 0.739828 -0.767883 121 61 35
0.502123 0.739606 -0.769429 122 62 36
0.50638 0.736806 -0.768893 121 60 35
0.508589 0.730544 -0.765536 120 58 34
0.512116 0.726586 -0.764053 120 58 34
0.51572 0.72279 -0.762701 117 56 31
0.519053 0.718585 -0.761011 114 52 26
0.52272 0.71496 -0.759798 111 49 23
0.527241 0.71272 -0.75973 107 46 20
0.531798 0.710529 -0.75971 106 46 20
0.536055 0.70786 -0.759301 103 43 19
0.539684 0.704229 -0.758095 104 44 19
0.543884 0.701486 -0.757634 100 40 18
0.54822 0.698947 -0.75735 98 38 16
0.553202 0.697359 -0.757873 97 37 16
0.557988 0.695455 -0.758141 95 36 12
0.562901 0.693715 -0.75856 92 34 10
0.566842 0.690559 -0.757788 90 34 9
0.570786 0.687413 -0.757031 88 32 8
0.576079 0.686154 -0.757891 88 32 9
0.580828 0.684104 -0.758089 89 33 10
0.586055 0.682682 -0.758839 87 32 10
0.59017 0.679727 -0.758283 88 33 10
0.59505 0.677786 -0.758613 91 37 14
0.600679 0.676801 -0.759786 95 40 17
0.606266 0.675711 -0.760888 100 46 22
0.61288 0.675891 -0.763118 103 48 24
0.622346 0.679614 -0.768483 105 50 24
0.622996 0.67211 -0.76402 107 52 26
0.631894 0.674935 -0.768657 108 54 28
0.637272 0.6733 -0.76939 108 54 27
0.642224 0.671106 -0.769644 108 54 30
0.644863 0.666111 -0.767416 107 53 29
0.649266 0.66324 -0.767087 106 52 28
0.652311 0.658762 -0.765327 104 48 25
0.65456 0.653382 -0.762756 98 42 19
0.65725 0.648547 -0.760674 93 37 14
0.660003 0.643812 -0.758681 90 36 13
0.664369 0.640909 -0.758357 88 34 11
0.668912 0.638184 -0.758208 86 34 9
0.674017 0.636055 -0.758619 85 33 11
0.67831 0.633013 -0.758206 84 31 11
0.682569 0.629921 -0.757756 80 30 11
0.685586 0.625502 -0.756085 71 28 12
0.690485 0.62307 -0.756265 66 26 11
0.695572 0.620807 -0.756618 48 17 6
0.701887 0.619769 -0.758137 31 13 5
0.707002 0.617462 -0.75848 21 10 1
0.711824 0.614833 -0.758533 11 7 0
0.712487 0.608071 -0.754663 9 7 1
0.7162 0.604367 -0.753691 7 7 2
0.719063 0.599849 -0.751935 6 7 2
0.724468 0.597789 -0.752538 4 6 1
0.727148 0.593129 -0.750634 4 6 1
0.730016 0.588679 -0.748921 5 6 1
0.732785 0.584172 -0.747136 6 7 3
0.738153 0.582079 -0.747699 5 6 2
0.744277 0.580657 -0.748922 5 7 2
0.747999 0.577063 -0.748001 5 7 2
0.749122 0.571198 -0.744809 4 6 1
0.750097 0.565285 -0.741529 7 8 3
0.753494 0.561554 -0.740389 5 6 1
0.756488 0.557522 -0.738916 7 8 3
0.758694 0.552877 -0.73679 7 8 3
0.76369 0.550642 -0.737062 6 7 2
0.770292 0.549765 -0.738688 6 7 2
0.77489 0.547247 -0.738618 5 7 2
0.778016 0.543577 -0.737329 4 6 1
0.779714 0.538831 -0.734882 5 6 1
0.779882 0.532967 -0.731216 4 6 1
0.781809 0.528612 -0.729041 5 6 1
0.788121 0.527773 -0.730463 6 7 2
0.797032 0.528972 -0.733976 7 8 3
0.797 0.523338 -0.730288 8 9 4
0.810143 0.527808 -0.73716 11 12 7
0.841349 0.545761 -0.758276 58 39 22
0.855701 0.550903 -0.765883 114 63 33
0.865251 0.552459 -0.76966 117 64 33
0.875109 0.554257 -0.77365 115 64 33
0.878849 0.55165 -0.772879 114 65 33
0.872338 0.541797 -0.764247 114 66 34
-0.341054 1.423917 -1.026012 122 125 111
-0.335247 1.424614 -1.028429 61 64 51
-0.331246 1.432853 -1.035437 36 38 27
-0.326472 1.438812 -1.041054 30 33 24
-0.330268 1.479967 -1.068266 22 25 18
-0.318372 1.458848 -1.057271 20 22 16
-0.257404 1.519228 -1.113632 12 14 9
-0.250112 1.523604 -1.118191 11 13 8
-0.236615 1.495171 -1.102087 8 10 5
-0.226748 1.485624 -1.097814 6 8 3
-0.223221 1.512145 -1.11629 5 7 2
-0.214534 1.561456 -1.151013 4 6 2
-0.178182 1.553013 -1.152635 3 5 1
-0.170662 1.56253 -1.160446 3 5 2
-0.163263 1.573958 -1.169497 2 4 1
-0.153094 1.564483 -1.165159 3 5 2
-0.138635 1.594489 -1.187931 1 3 0
-0.12183 1.608594 -1.200565 1 3 0
-0.06845 1.635885 -1.22913 1 3 0
0.102533 1.748801 -1.340122 1 3 0
0.185715 1.948884 -1.492343 1 3 0
0.196721 1.948027 -1.494333 1 3 0
0.207104 1.93928 -1.490938 2 4 0
0.21749 1.931576 -1.488253 2 4 0
0.228187 1.928111 -1.488479 2 4 0
0.240135 1.937923 -1.497854 3 5 0
0.255144 1.976622 -1.527198 2 4 0
0.261313 1.928687 -1.49679 3 5 0
0.271681 1.922561 -1.495222 4 6 1
0.283094 1.925687 -1.500075 3 5 0
0.295252 1.934381 -1.508826 2 4 0
0.305817 1.929871 -1.50842 2 4 0
0.315498 1.91905 -1.503615 2 4 0
0.325234 1.909319 -1.49956 2 4 0
0.333415 1.889573 -1.488477 2 4 0
0.343485 1.883547 -1.486992 1 3 0
0.353825 1.879505 -1.486902 1 3 0
0.366674 1.890915 -1.497713 2 4 0
0.378305 1.894205 -1.502839 4 5 0
0.384152 1.864094 -1.484345 4 5 0
0.39608 1.869361 -1.49088 4 5 0
0.406546 1.866308 -1.491533 5 6 1
0.416222 1.859181 -1.489292 8 9 3
0.424482 1.845167 -1.482132 12 12 6
0.433094 1.833523 -1.476643 15 16 8
0.440026 1.81436 -1.465746 19 19 12
0.449195 1.806463 -1.462903 21 21 13
0.460431 1.808167 -1.466966 24 24 16
0.472127 1.811656 -1.472339 25 24 17
0.481899 1.806574 -1.471543 26 25 17
0.489493 1.792486 -1.464224 28 26 18
0.49921 1.787594 -1.463557 31 27 18
0.50725 1.776111 -1.458094 32 28 18
0.515577 1.766137 -1.453715 32 28 17
0.52479 1.759841 -1.45201 33 29 19
0.534205 1.754433 -1.450952 32 28 19
0.543239 1.74774 -1.448952 32 29 20
0.551929 1.739974 -1.446158 32 28 19
0.560646 1.732491 -1.443566 33 28 20
0.569777 1.726595 -1.44214 36 30 22
0.578327 1.718863 -1.439352 35 29 20
0.586367 1.709634 -1.435446 34 28 19
0.594602 1.701269 -1.43217 36 28 19
0.602955 1.693464 -1.429301 35 28 19
0.610897 1.684559 -1.425603 35 26 16
0.619485 1.677817 -1.423513 35 24 15
0.630055 1.677083 -1.425929 36 21 14
0.639898 1.674129 -1.426691 37 18 11
0.647966 1.666072 -1.423612 37 14 6
0.654686 1.654381 -1.417776 37 12 4
0.662444 1.645845 -1.41431 39 13 4
0.671876 1.642025 -1.414415 38 11 2
0.680515 1.636096 -1.412919 40 11 1
0.685748 1.621307 -1.40466 40 11 1
0.683382 1.587294 -1.381661 42 12 2
0.383533 0.799728 -0.780691 40 16 10
0.390208 0.802548 -0.784414 40 12 6
0.391715 0.792531 -0.778265 40 12 5
0.394029 0.78472 -0.773794 39 11 4
0.397434 0.779685 -0.771455 39 11 2
0.401773 0.776935 -0.77088 41 11 0
0.406726 0.775625 -0.771426 45 13 2
0.410848 0.772409 -0.770491 45 14 2
0.414586 0.768371 -0.768913 47 15 3
0.419056 0.766006 -0.768642 51 17 3
0.421393 0.759025 -0.764746 59 23 9
0.425333 0.755616 -0.763648 65 26 11
0.429482 0.752685 -0.762926 81 35 18
0.433431 0.749365 -0.761896 87 38 20
0.438361 0.748086 -0.762485 98 47 27
0.442775 0.745746 -0.762237 102 50 29
0.446223 0.74149 -0.760463 109 53 32
0.450555 0.739025 -0.760118 110 54 30
0.454667 0.736147 -0.759443 109 53 28
0.462239 0.739886 -0.764091 113 55 32
0.46696 0.738101 -0.764314 114 55 32
0.472643 0.738089 -0.765977 117 57 33
0.477385 0.736295 -0.76621 118 58 34
0.480515 0.731571 -0.76407 119 58 34
0.486408 0.731842 -0.765992 119 58 33
0.491611 0.73083 -0.766884 121 61 35
0.498522 0.732751 -0.770188 121 61 35
0.500072 0.725364 -0.765871 121 61 35
0.504354 0.72273 -0.765453 121 61 35
0.508401 0.719709 -0.764718 122 60 35
0.512168 0.716238 -0.763614 119 58 31
0.516297 0.713383 -0.763022 118 57 29
0.520495 0.710646 -0.762534 115 54 26
0.524188 0.707111 -0.761383 113 53 24
0.528363 0.704356 -0.760887 112 51 23
0.532949 0.702242 -0.760934 110 50 23
0.53694 0.699203 -0.760211 109 49 23
0.540687 0.695804 -0.759188 107 46 21
0.545802 0.694466 -0.759915 107 45 21
0.549238 0.690614 -0.758518 106 44 20
0.554475 0.689417 -0.759385 103 42 16
0.559457 0.687813 -0.75992 99 40 14
0.563107 0.684282 -0.758815 99 41 15
0.567058 0.681188 -0.758089 99 40 15
0.571961 0.679425 -0.758518 96 37 13
0.5752 0.675343 -0.756953 97 37 13
0.580523 0.674121 -0.757873 97 38 14
0.585056 0.671795 -0.757848 96 38 14
0.590519 0.670685 -0.758898 100 43 20
0.597043 0.670922 -0.761148 100 43 20
0.6024 0.669566 -0.762023 103 46 23
0.607405 0.667717 -0.762481 107 50 26
0.613868 0.667683 -0.764563 108 51 26
0.618167 0.664863 -0.764195 110 53 28
0.622989 0.662678 -0.764405 110 54 28
0.629344 0.662343 -0.766286 109 54 28
0.633012 0.658687 -0.76521 108 54 29
0.638976 0.657782 -0.766621 108 54 30
0.644158 0.655893 -0.767165 107 52 28
0.649139 0.653733 -0.767482 105 48 25
0.652712 0.649912 -0.766302 100 44 19
0.652661 0.641954 -0.761346 95 39 15
0.656714 0.638734 -0.760715 92 38 14
0.660835 0.635582 -0.760156 90 35 11
0.664549 0.631969 -0.759181 90 36 9
0.669376 0.629573 -0.759343 88 34 10
0.673329 0.626206 -0.758614 88 34 9
0.677126 0.622667 -0.757733 88 34 11
0.681766 0.620016 -0.757692 86 34 10
0.686924 0.617885 -0.758152 84 31 8
0.690643 0.614236 -0.757193 85 32 12
0.695394 0.611643 -0.75724 81 31 10
0.699217 0.608093 -0.756384 77 29 8
0.704263 0.605764 -0.756702 65 26 6
0.709746 0.603843 -0.757422 59 25 8
0.711897 0.598639 -0.754986 37 16 4
0.717402 0.596714 -0.755713 23 12 2
0.721687 0.593595 -0.75529 15 8 0
0.725311 0.589854 -0.754257 11 8 0
0.727617 0.584901 -0.752025 8 6 0
0.731338 0.581299 -0.751105 7 7 2
0.735872 0.578457 -0.750927 6 7 2
0.740277 0.575506 -0.750632 6 7 2
0.743534 0.571542 -0.749314 6 7 2
0.748656 0.569262 -0.749661 5 6 1
0.752438 0.565817 -0.748824 6 7 2
0.754449 0.560879 -0.746451 5 6 1
0.758808 0.558017 -0.746145 6 7 2
0.7626 0.554708 -0.745356 5 6 1
0.764712 0.55004 -0.743142 7 8 3
0.765948 0.544729 -0.740214 6 7 2
0.771703 0.543213 -0.741148 6 7 2
0.777118 0.541444 -0.74179 4 6 1
0.779247 0.537077 -0.739688 7 8 3
0.782504 0.533696 -0.738556 5 6 1
0.782213 0.527607 -0.734525 6 7 2
0.788172 0.52651 -0.735671 7 8 3
0.791403 0.523355 -0.734596 5 6 1
0.798344 0.523112 -0.736546 6 7 2
0.811652 0.527709 -0.743606 10 9 3
0.832479 0.537875 -0.756605 79 46 25
0.843428 0.540571 -0.761619 118 64 33
0.854347 0.543237 -0.766569 119 65 34
0.861816 0.54339 -0.76877 119 65 34
0.867407 0.542234 -0.769498 118 66 34
0.870954 0.539689 -0.768652 117 68 36
-0.343702 1.427499 -1.036887 122 125 112
-0.338565 1.430667 -1.040868 83 86 73
-0.333728 1.435591 -1.045923 38 40 29
-0.329034 1.441737 -1.051729 30 33 24
-0.325002 1.451256 -1.059623 23 26 19
-0.31693 1.445162 -1.057827 17 20 13
-0.285115 1.457546 -1.075176 15 17 12
-0.235009 1.474185 -1.098378 10 12 7
-0.228541 1.482747 -1.105577 6 8 3
-0.220305 1.482161 -1.106943 5 7 2
-0.214245 1.494627 -1.116636 3 5 1
-0.174455 1.572142 -1.176889 2 4 0
-0.165376 1.571231 -1.178057 2 4 0
-0.160544 1.603803 -1.200915 3 5 2
-0.153117 1.618152 -1.212013 2 4 0
-0.144365 1.622578 -1.216689 1 3 0
-0.098298 1.628111 -1.229363 1 3 0
0.040764 1.771366 -1.354092 0 2 0
0.114083 1.854353 -1.42602 1 2 0
0.169513 1.898046 -1.468061 2 4 0
0.178905 1.876953 -1.456047 1 3 0
0.1919 1.908428 -1.480261 1 3 0
0.204063 1.924671 -1.494046 2 4 0
0.214733 1.920838 -1.49399 3 5 0
0.225526 1.918721 -1.495133 3 5 0
0.237018 1.924037 -1.501455 3 5 0
0.249631 1.939743 -1.515046 3 5 0
0.256632 1.900877 -1.490616 3 5 0
0.268286 1.907301 -1.497765 3 5 1
0.279858 1.912261 -1.503924 2 4 0
0.289608 1.901829 -1.49931 3 5 0
0.299219 1.891067 -1.494453 3 5 0
0.308774 1.88064 -1.489822 3 5 0
0.321358 1.892502 -1.500918 3 5 0
0.330015 1.876363 -1.492253 3 5 0
0.339724 1.868216 -1.489227 2 4 0
0.350751 1.868891 -1.492462 2 4 0
0.362965 1.876643 -1.500756 2 4 0
0.375116 1.883339 -1.508338 2 3 0
0.383955 1.870448 -1.501956 3 4 0
0.392983 1.859267 -1.496779 3 4 0
0.405089 1.865183 -1.50386 2 3 0
0.413509 1.851358 -1.496777 3 4 0
0.421147 1.834234 -1.487293 3 4 0
0.428341 1.81575 -1.476793 4 5 0
0.437715 1.808565 -1.474433 5 7 1
0.445917 1.796172 -1.468292 6 7 2
0.457171 1.798109 -1.472547 10 10 4
0.46928 1.803561 -1.479386 14 14 8
0.477484 1.791812 -1.473704 18 18 12
0.487476 1.78799 -1.473802 22 21 15
0.498278 1.787522 -1.476365 24 24 18
0.505244 1.771617 -1.467602 27 25 18
0.514502 1.765247 -1.465829 29 26 17
0.52396 1.759787 -1.464724 28 26 19
0.533139 1.753392 -1.462927 29 28 20
0.544675 1.755721 -1.467595 29 27 18
0.552017 1.742865 -1.461009 30 27 18
0.55995 1.732477 -1.456236 32 28 19
0.569283 1.727168 -1.455238 33 29 20
0.577237 1.717326 -1.450849 33 29 20
0.585828 1.709836 -1.448209 33 29 20
0.593847 1.700673 -1.444305 33 29 20
0.603584 1.69714 -1.444629 32 29 20
0.611257 1.687239 -1.440153 32 30 21
0.619729 1.680005 -1.437679 32 30 20
0.629383 1.676422 -1.437968 32 30 20
0.637608 1.668672 -1.435097 34 30 21
0.645234 1.659361 -1.431028 36 29 20
0.653875 1.653111 -1.429283 37 28 19
0.661666 1.644603 -1.425808 37 26 17
0.670604 1.639381 -1.424842 37 20 12
0.677874 1.629762 -1.420496 37 19 11
0.684693 1.619162 -1.415381 40 18 10
0.693027 1.612703 -1.413445 41 15 9
0.705697 1.617335 -1.420094 40 14 8
0.714897 1.613037 -1.419849 40 11 6
0.720349 1.59955 -1.412461 41 12 4
0.727838 1.591295 -1.409123 40 11 3
0.407508 0.777423 -0.779092 42 14 6
0.412538 0.776203 -0.779729 43 14 6
0.415712 0.770813 -0.777079 42 14 6
0.418488 0.764645 -0.773806 42 13 4
0.422103 0.760423 -0.772063 42 13 4
0.424956 0.754636 -0.76907 43 14 4
0.428026 0.749413 -0.766516 44 15 4
0.43257 0.747343 -0.766475 48 17 4
0.437293 0.745637 -0.766729 51 17 4
0.44118 0.742233 -0.765624 58 21 8
0.444622 0.737982 -0.763836 66 25 11
0.44842 0.734487 -0.762653 78 34 17
0.452112 0.730825 -0.761335 91 43 23
0.457125 0.729723 -0.762092 94 43 26
0.462548 0.729364 -0.763464 104 49 31
0.46491 0.723271 -0.760168 109 53 33
0.469315 0.721025 -0.760009 108 52 31
0.472897 0.717291 -0.758633 110 52 29
0.478632 0.717434 -0.760445 114 56 32
0.484 0.716866 -0.761687 116 57 33
0.491275 0.719564 -0.765644 119 58 34
0.496236 0.718165 -0.76623 117 58 33
0.500915 0.716264 -0.766409 118 58 33
0.504554 0.712611 -0.765133 118 57 32
0.508178 0.708963 -0.763862 119 57 31
0.51383 0.708646 -0.765386 118 57 29
0.518363 0.706475 -0.765367 116 55 27
0.521455 0.702007 -0.763416 115 54 26
0.524841 0.698046 -0.761891 114 54 26
0.528476 0.694502 -0.760721 114 53 26
0.532447 0.691495 -0.760008 115 53 27
0.538139 0.691099 -0.76153 113 52 25
0.540931 0.686315 -0.759312 112 50 25
0.545691 0.684484 -0.759626 110 49 22
0.549649 0.681463 -0.758926 111 49 22
0.553544 0.678354 -0.758156 108 47 19
0.558613 0.676923 -0.758847 107 46 21
0.563916 0.675786 -0.759807 105 44 19
0.567155 0.67174 -0.758246 106 45 18
0.571596 0.669369 -0.758153 103 42 16
0.576203 0.66721 -0.758256 104 43 17
0.581338 0.665739 -0.758976 105 44 19
0.586089 0.663721 -0.75923 105 46 22
0.591264 0.662233 -0.759969 107 49 24
0.598292 0.663108 -0.762824 109 51 27
0.604548 0.662898 -0.764744 111 53 29
0.608913 0.660228 -0.764488 112 54 29
0.613382 0.657673 -0.764346 112 55 28
0.619184 0.656748 -0.765685 112 55 27
0.623522 0.65398 -0.765381 111 55 26
0.626933 0.650075 -0.764056 110 54 28
0.631974 0.64813 -0.764522 110 54 31
0.639638 0.649246 -0.767802 108 52 29
0.642847 0.645059 -0.766256 105 49 25
0.643096 0.637468 -0.76158 101 43 19
0.645456 0.63238 -0.759197 97 40 15
0.652082 0.632139 -0.761304 94 37 13
0.654194 0.626789 -0.758686 92 37 13
0.660219 0.625794 -0.760132 91 36 11
0.664768 0.623131 -0.760037 90 36 9
0.669328 0.620461 -0.75995 90 36 11
0.673171 0.617006 -0.759132 89 35 11
0.678046 0.614636 -0.75935 90 36 12
0.681792 0.611063 -0.758437 89 35 11
0.685898 0.607862 -0.757883 87 34 11
0.689772 0.604418 -0.757103 87 36 10
0.692436 0.599756 -0.755151 85 34 7
0.699194 0.599199 -0.757167 85 33 8
0.703537 0.596201 -0.756834 83 32 6
0.70856 0.593858 -0.757145 78 31 7
0.712848 0.590789 -0.756752 76 30 8
0.716293 0.586916 -0.755567 74 28 8
0.720365 0.583652 -0.754975 61 25 7
0.724517 0.580471 -0.75446 48 19 5
0.728762 0.577384 -0.754032 35 15 2
0.732972 0.574275 -0.753573 16 9 0
0.737051 0.571062 -0.752998 11 8 1
0.741211 0.567941 -0.7525 9 8 2
0.747185 0.566438 -0.753625 7 7 1
0.751871 0.563805 -0.753592 8 7 2
0.755166 0.559992 -0.752333 6 7 2
0.759859 0.55742 -0.752314 6 7 1
0.764842 0.55512 -0.75255 6 7 2
0.768161 0.551458 -0.751347 8 8 4
0.768528 0.545423 -0.747632 7 7 2
0.770086 0.540475 -0.744984 6 7 2
0.775549 0.538777 -0.745683 6 7 2
0.778838 0.535376 -0.744551 6 7 2
0.78156 0.531601 -0.742967 6 7 2
0.784223 0.527866 -0.741364 6 7 2
0.786777 0.524136 -0.739701 6 7 2
0.791818 0.522409 -0.740111 5 6 1
0.799934 0.523079 -0.743037 6 7 2
0.814027 0.528269 -0.750789 14 10 3
0.832973 0.537017 -0.762374 101 57 33
0.838981 0.536076 -0.763473 120 65 34
0.846828 0.536541 -0.766041 120 65 34
0.855203 0.537427 -0.769015 119 65 34
0.861565 0.536896 -0.770389 120 66 35
0.865556 0.534735 -0.76991 119 67 35
-0.34904 1.441173 -1.054082 126 130 116
-0.341445 1.435075 -1.052378 99 102 89
-0.336882 1.440957 -1.058102 41 44 35
-0.331402 1.443941 -1.062013 33 35 26
-0.324096 1.440258 -1.061743 24 27 20
-0.31366 1.424268 -1.053726 18 21 14
-0.305855 1.476574 -1.092559 17 19 14
-0.233464 1.496978 -1.124353 8 11 4
-0.232432 1.53726 -1.152089 5 8 2
-0.220493 1.517166 -1.140929 4 6 1
-0.199091 1.600668 -1.202216 3 5 0
-0.172339 1.539136 -1.165718 2 4 0
-0.167314 1.567123 -1.185739 2 4 0
-0.154231 1.606553 -1.215107 2 4 0
-0.145747 1.61276 -1.220984 1 3 0
-0.136321 1.611285 -1.221822 2 4 0
-0.126943 1.610182 -1.222903 0 2 0
-0.118229 1.615625 -1.228302 1 3 0
-0.082174 1.630142 -1.245239 1 3 0
0.017501 1.819004 -1.39398 1 3 0
0.157659 1.915465 -1.490577 1 3 0
0.167078 1.890526 -1.475804 2 4 0
0.177691 1.88769 -1.47635 2 4 0
0.187608 1.875458 -1.470362 1 3 0
0.20045 1.902631 -1.491859 3 5 0
0.211923 1.909517 -1.499261 3 5 0
0.219783 1.874619 -1.47743 3 5 0
0.230338 1.872326 -1.478408 3 5 0
0.242317 1.884402 -1.489502 3 5 0
0.253599 1.888435 -1.49498 2 4 0
0.264294 1.886626 -1.496364 3 5 0
0.275837 1.892099 -1.502911 2 4 0
0.28624 1.887601 -1.502426 3 5 0
0.294933 1.869985 -1.492631 3 5 0
0.303077 1.849597 -1.480833 3 5 0
0.314343 1.853114 -1.486039 3 5 0
0.325693 1.856789 -1.491385 3 5 0
0.33589 1.852377 -1.490972 3 5 0
0.348248 1.861942 -1.500589 3 5 0
0.357223 1.849814 -1.494662 3 5 0
0.368441 1.85172 -1.498824 2 4 0
0.381244 1.862472 -1.509395 5 5 1
0.392479 1.863638 -1.513085 4 5 0
0.40203 1.855484 -1.510041 2 4 0
0.41078 1.843478 -1.504195 2 4 0
0.420021 1.834522 -1.500551 2 4 0
0.426581 1.8127 -1.487515 1 3 0
0.434353 1.79776 -1.47946 2 4 0
0.442395 1.784752 -1.472792 3 4 0
0.451875 1.778814 -1.471291 4 5 0
0.46705 1.798208 -1.488419 4 5 0
0.477208 1.79486 -1.488866 5 7 1
0.485495 1.783672 -1.48353 7 7 2
0.495178 1.778604 -1.482706 11 11 7
0.506102 1.778597 -1.48564 14 15 9
0.514149 1.767212 -1.480132 18 19 12
0.521567 1.753804 -1.4731 22 21 16
0.531252 1.749315 -1.472702 25 25 18
0.54145 1.74675 -1.473748 26 26 18
0.550316 1.739409 -1.471223 26 25 16
0.559673 1.733955 -1.470109 28 27 17
0.567199 1.722334 -1.46435 30 27 21
0.575781 1.714585 -1.461496 31 26 20
0.583355 1.703714 -1.456271 33 28 22
0.595665 1.708362 -1.462798 31 28 20
0.6048 1.70269 -1.461516 30 30 21
0.611569 1.689792 -1.454727 30 30 22
0.620134 1.682698 -1.452345 30 30 20
0.628285 1.674503 -1.449116 31 31 22
0.634993 1.66227 -1.442779 32 32 24
0.643618 1.655851 -1.440889 33 30 23
0.653972 1.654398 -1.442824 36 33 25
0.662528 1.647901 -1.440876 37 32 24
0.669494 1.637179 -1.435655 36 33 24
0.678064 1.630988 -1.43393 37 33 24
0.684869 1.620249 -1.428665 40 33 25
0.69311 1.613454 -1.426458 43 34 28
0.704047 1.6136 -1.429673 45 32 26
0.713485 1.609879 -1.429879 42 27 21
0.719541 1.597852 -1.423567 42 24 16
0.72703 1.589549 -1.420164 39 18 11
0.733314 1.578522 -1.414601 40 15 7
0.7401 1.568895 -1.410125 41 13 4
0.748893 1.564074 -1.409447 43 14 5
0.758218 1.560486 -1.409754 42 13 5
0.76673 1.55507 -1.408612 42 13 4
0.761727 1.519956 -1.383737 42 14 4
0.428428 0.773989 -0.789194 40 16 9
0.430488 0.766274 -0.784656 42 15 7
0.429341 0.751972 -0.774795 43 15 6
0.432381 0.746707 -0.772185 42 14 5
0.437173 0.745118 -0.77254 42 14 3
0.4411 0.74177 -0.771475 44 14 3
0.443861 0.73614 -0.768552 44 13 3
0.447602 0.732526 -0.767264 46 15 4
0.452082 0.73038 -0.767174 46 14 2
0.456044 0.727248 -0.766281 49 16 4
0.459925 0.723988 -0.765283 55 18 5
0.464197 0.721482 -0.764906 66 24 9
0.467195 0.716651 -0.762612 77 32 15
0.471364 0.714003 -0.76212 83 36 18
0.476111 0.712395 -0.762496 92 43 23
0.481115 0.71122 -0.763241 98 46 25
0.482719 0.704116 -0.759042 104 48 28
0.488265 0.703884 -0.760584 108 50 30
0.491711 0.700049 -0.759115 109 50 29
0.497544 0.700233 -0.76103 112 52 30
0.502984 0.699704 -0.762361 115 54 30
0.50832 0.698955 -0.763522 116 56 30
0.515132 0.700534 -0.766674 116 56 28
0.51907 0.697451 -0.765879 116 57 28
0.520779 0.690886 -0.762113 117 56 28
0.524617 0.687715 -0.761242 117 56 28
0.529867 0.686716 -0.762242 117 56 28
0.532614 0.681896 -0.759961 116 55 27
0.537162 0.679813 -0.760045 117 56 28
0.542225 0.678473 -0.760782 114 53 26
0.546115 0.675393 -0.760019 115 53 28
0.550015 0.672333 -0.759279 114 52 26
0.554428 0.670007 -0.759188 112 51 23
0.558978 0.667861 -0.759265 112 51 23
0.564176 0.666596 -0.760129 111 50 22
0.569253 0.665124 -0.760827 110 49 21
0.57385 0.662968 -0.760934 109 48 20
0.578087 0.660308 -0.760607 111 50 22
0.582297 0.657604 -0.760248 110 52 24
0.587752 0.656518 -0.761349 110 53 25
0.593096 0.655242 -0.762299 114 56 29
0.600102 0.656047 -0.765143 115 57 29
0.605024 0.654125 -0.765554 114 56 28
0.609232 0.651281 -0.765143 114 57 29
0.614141 0.649291 -0.765522 115 57 28
0.619586 0.647924 -0.766486 114 56 28
0.623205 0.644308 -0.765409 112 55 29
0.627416 0.641405 -0.764993 111 54 30
0.633195 0.640336 -0.766283 108 52 28
0.637449 0.637436 -0.765899 106 49 25
0.638959 0.631362 -0.762574 102 45 20
0.641539 0.626565 -0.760431 100 41 17
0.645317 0.623147 -0.759578 99 40 16
0.649856 0.620573 -0.759528 95 37 13
0.654574 0.618174 -0.759656 95 38 13
0.659103 0.615545 -0.75958 95 39 13
0.661922 0.611056 -0.757748 93 37 12
0.665926 0.607849 -0.757138 91 36 10
0.668895 0.603548 -0.755487 90 35 11
0.674067 0.601555 -0.756057 89 35 11
0.67993 0.600239 -0.757297 88 34 9
0.684672 0.597737 -0.757406 88 35 9
0.689315 0.595114 -0.757408 88 34 8
0.693556 0.592077 -0.757013 89 35 9
0.69888 0.590098 -0.75766 89 35 9
0.703543 0.587449 -0.757658 86 35 8
0.708228 0.58481 -0.757671 86 35 8
0.711885 0.581187 -0.756705 85 33 7
0.714691 0.576779 -0.754948 85 33 8
0.719793 0.574539 -0.75535 80 31 7
0.724766 0.572169 -0.75562 77 29 7
0.72881 0.568953 -0.75503 70 27 7
0.733559 0.566388 -0.755087 65 25 7
0.739873 0.56522 -0.756559 54 24 7
0.744752 0.562772 -0.756716 27 13 2
0.749305 0.560055 -0.756579 22 11 1
0.752187 0.555926 -0.75496 14 8 1
0.757171 0.553641 -0.755216 9 8 0
0.763279 0.552324 -0.756456 7 8 2
0.767475 0.549425 -0.756018 9 6 2
0.770309 0.545453 -0.754411 7 6 2
0.772505 0.541034 -0.752281 7 7 3
0.774764 0.536753 -0.750239 6 7 2
0.779208 0.534305 -0.750085 7 8 3
0.78073 0.529607 -0.747476 7 8 3
0.78448 0.526756 -0.746777 7 8 3
0.787676 0.52355 -0.745636 9 10 5
0.792644 0.521786 -0.745987 5 6 1
0.8015 0.523034 -0.749545 6 7 2
0.8178 0.529884 -0.759163 25 16 7
0.832878 0.535732 -0.767687 112 63 39
0.839603 0.535348 -0.769377 121 66 36
0.845402 0.534337 -0.770321 120 65 34
0.851109 0.533323 -0.771197 122 67 36
0.856303 0.532006 -0.771675 122 67 36
0.861788 0.530972 -0.772397 120 67 35
-0.346066 1.42387 -1.052067 125 129 115
-0.342753 1.433572 -1.060253 111 114 102
-0.338135 1.439052 -1.065794 52 54 45
-0.331642 1.437894 -1.067147 36 37 28
-0.324857 1.436045 -1.06804 27 30 23
-0.31476 1.421274 -1.060728 18 20 14
-0.294255 1.418462 -1.06486 14 16 10
-0.216637 1.52995 -1.161006 3 5 0
-0.204191 1.559611 -1.18402 3 5 0
-0.18741 1.565384 -1.191413 2 4 0
-0.166582 1.543311 -1.180427 2 4 0
-0.160328 1.563125 -1.195275 3 5 1
-0.152307 1.570705 -1.202065 2 4 0
-0.145673 1.590787 -1.217157 2 4 0
-0.138041 1.604177 -1.227848 2 4 0
-0.105355 1.651414 -1.266692 1 3 0
-0.084512 1.628874 -1.255336 1 3 0
-0.013827 1.753248 -1.355057 1 3 0
0.143052 1.882654 -1.47829 2 4 0
0.154342 1.89217 -1.487433 2 4 0
0.165807 1.902715 -1.49734 2 4 0
0.173223 1.849282 -1.462385 2 4 0
0.184547 1.859298 -1.471927 2 4 0
0.196348 1.87396 -1.484789 2 4 0
0.207282 1.875917 -1.488738 3 5 0
0.217407 1.86825 -1.485905 3 5 0
0.229372 1.881077 -1.497592 3 5 0
0.24065 1.885355 -1.503263 3 5 0
0.249594 1.866706 -1.492654 3 5 0
0.25974 1.860721 -1.49104 3 5 0
0.272453 1.877322 -1.505557 3 5 0
0.282867 1.873307 -1.505387 4 6 0
0.292721 1.865088 -1.502211 4 5 0
0.301317 1.847956 -1.492627 4 5 0
0.310486 1.836206 -1.486887 4 6 1
0.319418 1.823589 -1.480507 3 5 0
0.332989 1.842713 -1.497047 3 5 0
0.345709 1.854809 -1.508573 4 6 1
0.355739 1.849226 -1.507324 3 5 0
0.362417 1.823831 -1.491672 3 5 0
0.376286 1.841541 -1.50737 5 6 1
0.38868 1.8497 -1.516167 5 6 1
0.398291 1.842113 -1.513487 3 4 0
0.407062 1.830429 -1.507798 4 5 0
0.413136 1.805539 -1.492392 3 5 0
0.423782 1.804563 -1.494533 3 5 0
0.430806 1.786073 -1.483768 3 5 0
0.437533 1.767063 -1.47258 1 3 0
0.448731 1.769266 -1.477068 2 4 0
0.461232 1.776988 -1.485679 2 4 0
0.475735 1.792806 -1.500358 2 4 0
0.485241 1.786653 -1.498723 4 5 0
0.494346 1.779008 -1.495971 5 6 1
0.502901 1.769384 -1.491732 6 7 1
0.511712 1.761069 -1.488463 7 8 2
0.518807 1.746434 -1.480432 9 9 4
0.527488 1.738242 -1.477228 12 12 6
0.538049 1.737144 -1.479376 14 14 8
0.55114 1.744992 -1.488314 20 20 12
0.55858 1.73261 -1.481944 22 23 15
0.56397 1.71359 -1.470503 25 25 17
0.571201 1.701389 -1.464215 28 26 19
0.581002 1.697989 -1.464629 31 28 21
0.590162 1.692528 -1.463472 28 28 20
0.603132 1.699171 -1.471606 29 29 21
0.611327 1.690648 -1.468116 29 29 21
0.619512 1.68229 -1.464743 30 30 22
0.626485 1.670505 -1.458712 31 31 23
0.634239 1.661305 -1.454662 31 31 23
0.642535 1.65387 -1.451968 31 31 23
0.652672 1.651762 -1.453414 32 32 24
0.662513 1.648781 -1.454192 32 32 24
0.669287 1.637437 -1.448442 32 32 24
0.677477 1.630144 -1.445844 34 34 26
0.685575 1.622731 -1.443147 36 35 28
0.693141 1.61407 -1.43946 40 39 31
0.703564 1.612828 -1.441619 44 43 35
0.712092 1.606767 -1.439982 46 44 37
0.718691 1.596046 -1.434647 47 45 37
0.724613 1.583911 -1.428169 45 43 33
0.733035 1.577982 -1.426613 46 40 32
0.741599 1.572452 -1.425376 45 34 26
0.748938 1.564152 -1.42192 42 25 19
0.757491 1.558738 -1.420774 42 22 16
0.764928 1.550878 -1.41766 41 17 12
0.771703 1.541677 -1.413456 40 17 11
0.777815 1.531194 -1.408202 41 15 9
0.787208 1.52791 -1.408769 42 15 7
0.79558 1.522454 -1.407581 43 14 5
0.788915 1.485853 -1.381006 42 14 4
0.798823 1.484061 -1.382754 42 14 3
0.443356 0.746006 -0.781214 40 17 8
0.447043 0.742124 -0.779714 41 16 7
0.45002 0.736897 -0.777104 40 15 5
0.451652 0.729157 -0.77241 40 15 4
0.455791 0.726344 -0.771776 39 14 2
0.460244 0.724138 -0.771648 40 15 3
0.464048 0.72073 -0.770525 42 14 3
0.467062 0.715906 -0.768219 45 14 4
0.471077 0.712958 -0.767477 47 14 3
0.475464 0.71069 -0.767308 50 17 3
0.47964 0.708048 -0.76683 53 19 3
0.4832 0.704348 -0.765463 60 22 7
0.486532 0.700291 -0.763793 66 23 11
0.490803 0.697862 -0.763503 80 31 17
0.494539 0.694544 -0.762461 89 37 20
0.498425 0.691493 -0.761649 98 45 27
0.501276 0.686775 -0.759413 97 45 25
0.504543 0.682781 -0.757793 105 52 28
0.510082 0.682424 -0.759303 111 55 30
0.514939 0.680947 -0.759863 115 55 30
0.521564 0.682175 -0.762777 115 55 30
0.524289 0.677352 -0.760463 117 58 31
0.528344 0.674589 -0.759938 115 55 28
0.532189 0.671515 -0.759147 116 55 29
0.537612 0.670773 -0.760405 115 55 30
0.543105 0.670082 -0.761726 118 56 31
0.547013 0.667066 -0.761015 117 55 31
0.550882 0.663997 -0.760263 117 56 28
0.554723 0.660894 -0.759487 116 55 27
0.559894 0.65964 -0.760362 116 55 27
0.566595 0.660441 -0.76309 116 55 27
0.571308 0.658463 -0.763357 115 54 26
0.574535 0.654472 -0.761829 114 53 25
0.578291 0.651203 -0.760954 115 56 27
0.582487 0.648512 -0.760609 115 56 28
0.590679 0.65097 -0.764947 118 58 29
0.595143 0.648542 -0.764877 118 58 29
0.600466 0.647178 -0.765793 118 58 30
0.605552 0.645475 -0.766418 120 59 31
0.609674 0.642547 -0.765933 118 58 30
0.614785 0.640815 -0.766563 118 58 30
0.619533 0.638608 -0.766772 117 57 31
0.624715 0.636892 -0.767452 115 56 32
0.628968 0.634043 -0.767095 113 54 29
0.630989 0.628587 -0.764306 111 51 25
0.633248 0.623448 -0.76181 106 46 19
0.637596 0.620721 -0.761586 104 43 18
0.639194 0.61489 -0.758433 103 41 16
0.644952 0.613731 -0.759713 102 41 15
0.649521 0.611214 -0.75972 99 41 14
0.653149 0.607655 -0.758742 97 40 13
0.656886 0.604213 -0.757882 97 39 13
0.660499 0.60064 -0.756901 95 38 11
0.665609 0.598639 -0.757449 94 38 12
0.670373 0.596248 -0.757632 93 37 10
0.67544 0.594144 -0.758109 92 35 9
0.680098 0.591597 -0.758164 91 35 9
0.685106 0.589383 -0.758557 91 36 11
0.689516 0.586553 -0.75835 90 35 10
0.69372 0.583512 -0.757938 89 34 8
0.698615 0.581138 -0.758194 87 33 8
0.702736 0.578007 -0.757696 85 31 8
0.706067 0.574132 -0.756447 84 33 7
0.709784 0.570641 -0.755574 85 32 9
0.714248 0.567859 -0.75541 84 33 10
0.72046 0.566681 -0.756874 81 30 8
0.72521 0.564152 -0.75696 83 32 9
0.730205 0.561848 -0.757267 83 32 9
0.734466 0.558897 -0.756895 83 32 9
0.738532 0.555797 -0.75635 77 31 8
0.742764 0.552872 -0.75596 75 30 7
0.748246 0.551047 -0.756695 64 27 6
0.751575 0.547409 -0.755507 53 23 5
0.757274 0.545813 -0.75643 33 14 3
0.761281 0.542829 -0.755858 29 11 2
0.767105 0.541388 -0.756884 18 9 1
0.773027 0.540048 -0.757985 11 8 1
0.773818 0.53461 -0.754661 7 8 2
0.776584 0.530858 -0.753076 5 6 1
0.782418 0.529608 -0.754129 7 8 3
0.786614 0.527119 -0.753795 7 7 2
0.788431 0.522861 -0.751477 8 9 4
0.790719 0.519069 -0.749593 7 8 3
0.80169 0.521954 -0.754948 8 6 2
0.819555 0.529987 -0.765939 44 26 17
0.82539 0.528967 -0.766953 112 63 38
0.834902 0.530713 -0.770966 120 65 37
0.84264 0.531177 -0.773512 123 68 37
0.845864 0.528413 -0.77241 123 68 37
0.849302 0.5259 -0.771511 122 67 36
0.854291 0.524583 -0.771876 121 68 37
-0.344666 1.412619 -1.053691 123 127 113
-0.342946 1.427961 -1.065528 113 116 102
-0.337887 1.431505 -1.069902 74 76 64
-0.331141 1.4291 -1.070482 38 39 30
-0.325314 1.430737 -1.073612 29 32 25
-0.315767 1.418005 -1.067543 21 24 17
-0.27507 1.416787 -1.078579 13 15 10
-0.266496 1.410101 -1.076131 14 16 10
-0.233743 1.565255 -1.192497 5 7 2
-0.202316 1.532138 -1.176167 3 5 0
-0.194923 1.540233 -1.183328 2 4 0
-0.186756 1.544008 -1.187627 2 4 0
-0.17006 1.550582 -1.195573 2 4 0
-0.16255 1.560983 -1.204294 1 3 0
-0.153228 1.558123 -1.20417 2 4 0
-0.137861 1.580546 -1.222765 2 4 0
-0.122607 1.609389 -1.245777 1 3 0
-0.114615 1.622696 -1.256582 1 3 0
-0.09896 1.658391 -1.284432 1 3 0
-0.069086 1.642353 -1.279266 1 3 0
0.013443 1.781474 -1.392802 0 2 0
0.03338 1.843283 -1.439962 1 3 0
0.118508 1.858991 -1.469715 1 3 0
0.129624 1.869739 -1.479714 2 4 0
0.140707 1.877179 -1.487427 2 4 0
0.151304 1.873746 -1.487501 2 4 0
0.1615 1.864007 -1.483124 2 4 0
0.170819 1.842189 -1.47018 4 6 1
0.180694 1.831714 -1.465249 3 5 0
0.192849 1.852862 -1.482804 2 4 0
0.203496 1.85236 -1.485005 2 4 0
0.215805 1.870934 -1.500844 3 5 0
0.227035 1.875423 -1.506675 4 6 1
0.237795 1.874456 -1.508628 3 5 1
0.246258 1.851278 -1.494645 3 5 0
0.255056 1.833416 -1.484442 4 5 0
0.266843 1.843154 -1.494107 4 5 0
0.280119 1.86417 -1.511964 5 6 1
0.28758 1.83712 -1.49511 4 5 0
0.298965 1.84196 -1.501325 5 6 1
0.307505 1.825604 -1.492171 5 6 1
0.317484 1.820419 -1.491122 4 5 0
0.328309 1.821154 -1.494396 4 6 1
0.341486 1.836855 -1.508633 4 6 1
0.350331 1.824327 -1.502255 3 5 0
0.359138 1.812288 -1.496218 3 4 0
0.370716 1.816982 -1.502472 5 6 1
0.38235 1.821534 -1.508654 5 6 1
0.391766 1.813585 -1.505636 4 5 1
0.399945 1.799455 -1.498038 4 5 0
0.409922 1.795212 -1.497749 4 5 0
0.418454 1.783889 -1.492203 4 5 0
0.427871 1.777328 -1.490188 3 5 0
0.435213 1.761251 -1.481068 3 5 0
0.444418 1.754395 -1.478813 2 4 0
0.458653 1.7701 -1.493467 2 4 0
0.472278 1.782206 -1.505487 2 4 0
0.483084 1.781667 -1.508046 3 5 0
0.491687 1.771943 -1.503692 3 5 0
0.498523 1.755448 -1.494207 3 6 0
0.507095 1.746395 -1.490326 4 5 0
0.516482 1.740737 -1.489012 5 6 1
0.526903 1.739067 -1.490735 6 7 1
0.538203 1.740543 -1.49487 6 7 1
0.544317 1.723259 -1.484689 6 7 1
0.556361 1.727343 -1.490841 7 8 1
0.558212 1.696179 -1.469959 10 10 3
0.567598 1.691458 -1.46934 14 14 7
0.578305 1.691143 -1.472124 17 17 10
0.587729 1.686571 -1.471635 20 20 13
0.59939 1.68911 -1.476661 25 25 17
0.608392 1.683185 -1.475142 27 27 19
0.616468 1.67454 -1.471504 27 27 19
0.625767 1.669733 -1.470852 29 29 21
0.63393 1.661653 -1.467641 30 30 22
0.642039 1.653584 -1.464432 30 30 22
0.651129 1.648443 -1.463515 30 30 22
0.660172 1.643226 -1.462539 30 30 22
0.668566 1.636301 -1.460217 31 31 23
0.676471 1.628179 -1.456944 33 33 25
0.685337 1.622736 -1.455786 35 34 29
0.694048 1.616951 -1.454359 36 36 30
0.703549 1.61324 -1.454584 39 39 34
0.711907 1.60667 -1.452532 43 44 38
0.716986 1.592139 -1.444103 45 46 40
0.724425 1.583653 -1.440494 46 47 40
0.732442 1.576691 -1.438099 46 49 42
0.741603 1.572506 -1.437942 47 49 43
0.750206 1.567041 -1.436756 46 47 40
0.757105 1.55776 -1.432478 48 48 40
0.764002 1.548634 -1.428314 47 45 37
0.772149 1.542415 -1.426505 46 41 33
0.780104 1.535847 -1.424411 44 34 27
0.786342 1.525687 -1.419372 42 29 19
0.79507 1.520943 -1.418764 42 23 15
0.803752 1.516121 -1.418099 40 21 11
0.808964 1.50423 -1.411605 40 17 8
0.820377 1.505047 -1.415603 41 15 5
0.828487 1.499163 -1.414072 42 15 4
0.835035 1.490268 -1.410038 41 15 4
0.840599 1.4796 -1.404516 40 14 3
0.464475 0.731625 -0.784214 36 18 8
0.468128 0.727801 -0.782754 39 17 8
0.468602 0.718211 -0.776432 39 15 7
0.471437 0.713071 -0.773843 39 15 5
0.47498 0.709265 -0.772378 39 14 4
