ply
format ascii 1.0
comment ---
element vertex 1238
property float x
property float y
property float z
property uchar red
property uchar green
property uchar blue
element face 0
property list uchar uint vertex_indices
end_header
0.330949 1.870133 -0.863664 44 22 11
0.339769 1.866221 -0.862402 45 23 11
0.348691 1.862765 -0.861347 44 22 9
0.356938 1.856577 -0.859114 44 22 9
0.365416 1.851427 -0.85734 44 22 9
0.372868 1.842366 -0.853872 44 22 9
0.382111 1.840342 -0.853475 45 23 10
0.392131 1.841157 -0.854325 44 22 9
0.402012 1.841287 -0.854887 43 23 10
0.410172 1.835103 -0.852706 42 22 9
0.417574 1.826356 -0.849413 44 23 10
0.425876 1.820901 -0.847563 44 24 10
0.423734 1.780215 -0.830319 68 50 38
0.435144 1.723156 -0.806968 75 71 60
0.44622 1.728073 -0.809672 26 24 14
0.45777 1.734167 -0.812902 23 21 11
0.470644 1.743949 -0.817764 81 79 66
0.480232 1.743495 -0.818141 113 109 98
0.489243 1.741261 -0.817741 113 109 98
0.499303 1.74203 -0.818665 53 49 38
0.507609 1.737716 -0.817354 24 22 12
0.512722 1.724558 -0.812144 19 16 6
0.5156 1.705617 -0.804375 99 96 82
0.514365 1.676109 -0.791927 98 92 77
0.54377 1.728933 -0.815837 38 23 11
0.559409 1.744068 -0.823113 43 23 12
0.572615 1.752454 -0.827407 42 22 11
0.580673 1.747507 -0.825795 41 22 11
0.588201 1.741387 -0.82365 41 22 11
0.598737 1.742895 -0.824872 42 22 11
0.607004 1.738883 -0.823632 42 22 11
0.613052 1.729723 -0.820086 41 21 10
0.621529 1.72664 -0.819217 41 21 10
0.630402 1.72466 -0.818816 41 21 10
0.640334 1.725287 -0.819551 42 23 11
0.650981 1.727655 -0.821036 39 21 9
0.661961 1.730863 -0.822868 39 21 9
0.670588 1.728948 -0.822388 37 21 8
0.677577 1.723681 -0.820379 39 21 9
0.686901 1.723791 -0.820734 39 21 9
0.689778 1.71034 -0.815 40 21 9
0.697888 1.708482 -0.814399 32 15 4
0.704766 1.704333 -0.812737 27 11 2
0.715872 1.709263 -0.815089 27 12 3
-0.822171 0.994604 -0.495444 105 99 85
-0.819027 0.998362 -0.497137 104 98 86
-0.815529 1.001828 -0.498673 103 97 85
-0.812941 1.006675 -0.500799 103 97 84
-0.811565 1.013341 -0.503711 102 96 83
-0.807956 1.017194 -0.505342 103 97 83
-0.804455 1.021357 -0.507086 104 98 84
-0.802119 1.027292 -0.509596 103 97 83
-0.797787 1.030633 -0.510927 104 98 84
-0.793307 1.033897 -0.512202 105 99 85
-0.790129 1.039138 -0.514336 106 100 86
-0.787186 1.044873 -0.516669 108 102 88
-0.780759 1.04571 -0.516805 109 103 87
-0.776962 1.050452 -0.518662 108 105 88
-0.774108 1.056713 -0.521177 110 107 91
-0.769179 1.060014 -0.522364 111 108 93
-0.763706 1.062569 -0.523207 114 111 96
-0.760795 1.069092 -0.5258 115 112 97
-0.756947 1.074298 -0.527797 116 113 98
-0.752933 1.07934 -0.529714 118 115 100
-0.747052 1.081515 -0.530355 120 114 100
-0.74396 1.088162 -0.532968 122 116 102
-0.740565 1.094428 -0.535407 124 118 104
-0.736191 1.099189 -0.537177 123 117 103
-0.73147 1.103433 -0.538716 125 119 105
-0.72653 1.107352 -0.540111 127 121 107
-0.724161 1.115646 -0.543432 127 121 107
-0.718117 1.11778 -0.54404 129 123 110
-0.714206 1.123587 -0.546266 130 124 110
-0.708602 1.126491 -0.547217 130 124 110
-0.705972 1.134657 -0.550483 132 126 112
-0.700592 1.138009 -0.551637 132 126 112
-0.695354 1.141618 -0.552906 134 128 114
-0.691568 1.147899 -0.555352 133 127 113
-0.68775 1.154188 -0.557804 135 129 115
-0.682804 1.158424 -0.559361 136 130 116
-0.678671 1.164224 -0.561608 136 130 116
-0.673193 1.167489 -0.56275 138 132 118
-0.668379 1.172044 -0.564462 139 133 119
-0.663882 1.177251 -0.566464 138 132 119
-0.661346 1.186424 -0.570204 139 133 119
-0.654845 1.187708 -0.570503 140 134 121
-0.650519 1.1934 -0.572733 140 134 121
-0.64602 1.198791 -0.574838 140 135 121
-0.641394 1.203966 -0.576854 142 135 121
-0.63635 1.208299 -0.578508 142 136 123
-0.632196 1.214583 -0.581019 143 137 124
-0.626032 1.216546 -0.581654 142 137 123
-0.622424 1.224146 -0.584748 142 139 126
-0.619477 1.233353 -0.588546 143 139 127
-0.614069 1.237117 -0.589983 144 140 128
-0.607907 1.239162 -0.590679 144 140 127
-0.603379 1.245005 -0.593032 144 140 127
-0.599112 1.251549 -0.595694 147 141 129
-0.595086 1.258778 -0.598659 147 141 129
-0.590195 1.264022 -0.600767 147 141 127
-0.585306 1.26934 -0.602913 147 141 127
-0.580008 1.273709 -0.604653 145 142 127
-0.575341 1.279735 -0.607118 145 142 129
-0.570436 1.285248 -0.609364 145 141 129
-0.565648 1.29116 -0.61179 146 142 130
-0.560787 1.296979 -0.614179 147 142 129
-0.555512 1.301786 -0.616136 147 142 129
-0.551397 1.309851 -0.619508 147 142 129
-0.546283 1.315313 -0.621758 147 142 130
-0.541154 1.320833 -0.624038 148 142 130
-0.53654 1.327943 -0.627011 148 143 130
-0.53121 1.333121 -0.629152 148 143 131
-0.526285 1.339604 -0.631863 149 143 131
-0.520224 1.342804 -0.633157 149 144 131
-0.514587 1.347349 -0.635039 150 144 132
-0.50924 1.35289 -0.637355 150 144 132
-0.503742 1.358079 -0.639524 150 144 132
-0.497864 1.362156 -0.641216 150 145 132
-0.49314 1.370115 -0.64459 151 145 133
-0.487445 1.375046 -0.64666 151 145 133
-0.481533 1.379358 -0.648466 151 145 133
-0.476598 1.387166 -0.651786 151 145 133
-0.472405 1.397838 -0.656349 151 145 133
-0.467131 1.40496 -0.65938 151 145 133
-0.461997 1.412817 -0.662733 151 145 133
-0.455736 1.416699 -0.664372 151 145 133
-0.449702 1.421547 -0.666432 152 146 134
-0.443836 1.427197 -0.668842 152 146 134
-0.437813 1.432399 -0.671062 152 146 134
-0.431968 1.438498 -0.673672 153 147 135
-0.426474 1.44627 -0.677009 153 146 136
-0.420616 1.45278 -0.679803 153 147 136
-0.41471 1.459326 -0.682617 154 148 136
-0.408726 1.465772 -0.68539 155 148 137
-0.403831 1.47745 -0.690426 156 149 139
-0.397369 1.482306 -0.692518 157 149 140
-0.391597 1.490662 -0.696125 157 148 139
-0.386176 1.501114 -0.700641 158 149 140
-0.379966 1.508075 -0.703651 158 149 140
-0.373302 1.513 -0.705785 158 149 140
-0.367396 1.522182 -0.709761 158 149 140
-0.361354 1.531082 -0.713618 158 149 140
-0.355303 1.540395 -0.717655 159 150 141
-0.347982 1.542824 -0.718722 148 138 129
-0.340623 1.545116 -0.719732 139 129 120
-0.333811 1.550879 -0.722245 22 15 8
-0.327181 1.558124 -0.7254 19 12 5
-0.320601 1.566135 -0.728889 116 108 101
-0.316755 1.593353 -0.740678 149 140 133
-0.307631 1.585067 -0.737132 29 22 17
-0.301788 1.60024 -0.743723 13 6 3
-0.294932 1.608787 -0.747454 16 9 4
-0.288404 1.62057 -0.752586 81 73 66
-0.281419 1.629502 -0.75649 141 132 124
-0.273919 1.634698 -0.758781 144 136 125
-0.267397 1.649166 -0.765083 142 134 123
-0.259794 1.654687 -0.76752 138 130 118
-0.252046 1.659255 -0.769549 129 121 107
-0.244335 1.664633 -0.771929 98 89 75
-0.237079 1.675588 -0.776724 80 65 51
-0.230055 1.690512 -0.783238 70 48 35
-0.222727 1.703436 -0.788891 66 40 27
-0.214563 1.706863 -0.79044 67 37 26
-0.207846 1.731454 -0.801146 66 36 25
-0.19956 1.73553 -0.802982 67 37 25
-0.191117 1.737561 -0.803937 67 38 24
-0.183473 1.754536 -0.811359 67 38 24
-0.174666 1.751343 -0.81006 64 35 21
-0.166045 1.751509 -0.810216 63 34 20
-0.157484 1.753125 -0.811003 61 32 18
-0.149299 1.766015 -0.816673 57 28 15
-0.140884 1.775382 -0.820821 54 24 13
-0.132292 1.781127 -0.823406 52 23 11
-0.123803 1.795078 -0.829548 51 23 11
-0.114911 1.790276 -0.827573 51 23 11
-0.10606 1.784323 -0.825102 52 24 13
-0.097318 1.789668 -0.827528 54 26 15
-0.088523 1.797156 -0.830886 56 28 18
-0.079653 1.804931 -0.834374 59 31 19
-0.070773 1.806616 -0.835226 61 33 21
-0.061838 1.810786 -0.83716 61 33 21
-0.052602 1.827324 -0.84446 61 33 21
-0.043505 1.832175 -0.846699 61 33 21
-0.034083 1.8459 -0.852792 61 33 21
-0.024754 1.853223 -0.856113 61 33 21
-0.015827 1.84897 -0.854419 61 33 21
-0.006777 1.848285 -0.854275 61 33 21
0.002616 1.854402 -0.85709 61 33 21
0.012033 1.859804 -0.859599 61 33 21
0.021702 1.868379 -0.863493 61 33 21
0.03118 1.872729 -0.865557 61 33 21
0.040381 1.872524 -0.86565 61 33 21
0.049519 1.871474 -0.865381 59 33 20
0.059042 1.875204 -0.867195 59 33 20
0.068887 1.882159 -0.870417 59 33 20
0.078734 1.888285 -0.873286 58 32 19
0.087672 1.884293 -0.871762 58 32 19
0.096345 1.87802 -0.869251 58 32 19
0.105294 1.874834 -0.868088 58 32 19
0.115951 1.887145 -0.873678 58 32 19
0.126103 1.893969 -0.876888 58 32 19
0.135212 1.891582 -0.876095 57 31 18
0.144635 1.891761 -0.876426 56 30 17
0.154025 1.891582 -0.876609 56 30 17
0.1634 1.891207 -0.876715 56 30 17
0.172578 1.889371 -0.876191 55 29 16
0.182124 1.89006 -0.876776 54 28 15
0.191876 1.891936 -0.877887 54 28 15
0.201614 1.893493 -0.878869 53 27 14
0.210801 1.891458 -0.87829 53 27 14
0.219494 1.886493 -0.87644 51 25 12
0.228029 1.880794 -0.874276 52 26 13
0.236689 1.876001 -0.872515 50 25 13
0.245909 1.874415 -0.872165 49 25 14
0.25515 1.872901 -0.871856 49 25 13
0.264945 1.874194 -0.872785 49 25 12
0.273144 1.867281 -0.87013 48 25 12
0.282125 1.864419 -0.869257 48 25 12
0.292621 1.868791 -0.871566 47 24 12
0.301666 1.866064 -0.870773 47 24 12
0.310835 1.863893 -0.870233 47 24 12
0.31971 1.860386 -0.869116 47 24 12
0.329461 1.860693 -0.869684 47 24 12
0.338329 1.857108 -0.868553 46 24 12
0.346888 1.852261 -0.866875 45 22 9
0.355291 1.846856 -0.864961 45 23 10
0.363321 1.840054 -0.86244 44 22 9
0.371548 1.834163 -0.860327 44 22 9
0.380128 1.829711 -0.858858 44 22 9
0.389746 1.829158 -0.859117 42 21 8
0.399017 1.827219 -0.858776 43 22 9
0.407509 1.822426 -0.857183 45 23 11
0.415499 1.815921 -0.854842 46 24 11
0.422626 1.806557 -0.851242 47 25 13
0.427524 1.789884 -0.84441 45 24 13
0.43235 1.773458 -0.837687 43 24 13
0.438875 1.763023 -0.833619 43 26 15
0.43301 1.713295 -0.812117 48 33 22
0.452519 1.657939 -0.789749 84 79 67
0.466924 1.672876 -0.796968 41 37 25
0.488086 1.70666 -0.812604 28 25 13
0.495755 1.701085 -0.810705 22 20 9
0.492816 1.666091 -0.795668 114 109 94
0.503519 1.669511 -0.797774 52 41 26
0.529271 1.713342 -0.817956 37 22 9
0.550065 1.742611 -0.831648 41 23 11
0.559213 1.740524 -0.831311 42 22 11
0.56881 1.739639 -0.831504 42 22 11
0.578331 1.738585 -0.831613 42 22 11
0.587121 1.735751 -0.830912 42 22 11
0.59632 1.734036 -0.830699 43 23 12
0.605217 1.731688 -0.830185 42 22 11
0.611906 1.724185 -0.827333 42 22 11
0.616884 1.712932 -0.822768 41 21 10
0.626765 1.713503 -0.823502 42 22 11
0.638648 1.718782 -0.826334 40 21 9
0.64942 1.721541 -0.828006 38 20 8
0.657768 1.718957 -0.827237 39 21 10
0.665395 1.715014 -0.825823 39 21 9
0.673383 1.712147 -0.824859 39 20 9
0.6786 1.70357 -0.821278 39 20 8
0.689193 1.706885 -0.823033 37 17 6
0.695156 1.700584 -0.820403 29 11 1
0.703712 1.70008 -0.820352 27 10 0
0.714622 1.704699 -0.822578 27 11 2
-0.822274 0.993181 -0.500862 106 100 86
-0.820447 0.998619 -0.503343 105 99 87
-0.816154 1.001009 -0.504419 104 98 84
-0.814292 1.006783 -0.506998 103 97 83
-0.811214 1.011131 -0.508906 104 98 84
-0.807605 1.014936 -0.510541 104 98 84
-0.806731 1.022642 -0.513914 104 98 84
-0.802819 1.026386 -0.515471 104 98 84
-0.799026 1.030447 -0.517146 105 99 85
-0.794365 1.033435 -0.518313 105 99 85
-0.788356 1.034632 -0.518651 107 101 87
-0.784524 1.039025 -0.520411 109 103 89
-0.781306 1.044442 -0.522614 109 103 88
-0.778968 1.051292 -0.525444 110 106 90
-0.77395 1.054349 -0.526547 110 107 92
-0.770038 1.059138 -0.528417 114 108 94
-0.765282 1.062765 -0.529749 116 110 96
-0.761348 1.067722 -0.531668 115 112 97
-0.757778 1.07334 -0.533873 115 112 97
-0.753796 1.078421 -0.535827 117 114 99
-0.748495 1.081511 -0.536879 121 114 100
-0.74539 1.088137 -0.539512 121 115 101
-0.740649 1.092239 -0.541006 124 118 104
-0.736522 1.097387 -0.542966 124 118 104
-0.731757 1.101552 -0.544483 125 119 105
-0.730864 1.112214 -0.548902 126 120 106
-0.725351 1.115268 -0.549917 128 122 108
-0.719888 1.118413 -0.550974 129 123 109
-0.714001 1.120831 -0.551708 130 124 110
-0.709572 1.12578 -0.553574 130 124 110
-0.705591 1.131563 -0.555813 132 126 112
-0.700956 1.136236 -0.55756 133 127 113
-0.696128 1.140594 -0.559169 133 127 113
-0.692815 1.147749 -0.562027 133 127 113
-0.687963 1.15214 -0.563658 135 129 115
-0.683197 1.156716 -0.565377 135 129 115
-0.67871 1.161849 -0.567347 136 130 116
-0.67454 1.167631 -0.56961 137 131 117
-0.670459 1.173644 -0.57198 138 132 118
-0.665033 1.177067 -0.573207 138 132 118
-0.659572 1.180418 -0.57441 138 132 118
-0.655585 1.186747 -0.576935 139 133 119
-0.651717 1.193392 -0.579606 140 134 120
-0.646582 1.197493 -0.581158 140 134 120
-0.641608 1.201951 -0.582873 141 135 121
-0.636325 1.205781 -0.584318 142 136 122
-0.630548 1.208561 -0.585305 142 136 122
-0.628953 1.220463 -0.590324 142 137 123
-0.624665 1.226638 -0.59282 141 137 125
-0.619425 1.230757 -0.594416 143 139 127
-0.614474 1.235561 -0.59632 143 139 127
-0.60872 1.238563 -0.597437 144 140 126
-0.606133 1.248965 -0.601818 144 140 128
-0.600973 1.253478 -0.603611 144 140 128
-0.596046 1.258597 -0.605677 147 141 127
-0.591455 1.264602 -0.608139 144 140 126
-0.586623 1.270104 -0.610385 145 141 126
-0.581496 1.274947 -0.612346 143 140 125
-0.576601 1.280444 -0.614601 145 141 128
-0.571134 1.28455 -0.616251 145 141 129
-0.565952 1.289453 -0.618256 145 141 128
-0.561557 1.296519 -0.621216 147 141 129
-0.556956 1.303174 -0.624 146 141 128
-0.551762 1.308332 -0.626133 147 141 128
-0.546516 1.313438 -0.628247 147 141 128
-0.541819 1.320186 -0.631088 147 142 128
-0.536722 1.325932 -0.633493 147 142 129
-0.531515 1.33147 -0.635812 148 142 130
-0.525589 1.334993 -0.637253 148 142 130
-0.520287 1.340447 -0.639544 148 143 130
-0.514747 1.345288 -0.641572 149 143 131
-0.508959 1.349452 -0.643308 149 143 131
-0.503949 1.356169 -0.646167 149 143 131
-0.500218 1.367183 -0.650912 150 144 132
-0.494749 1.37282 -0.653306 150 144 132
-0.487398 1.3723 -0.653008 150 144 132
-0.480886 1.374555 -0.653929 150 144 132
-0.476962 1.385817 -0.658798 150 144 132
-0.472796 1.39659 -0.663457 150 144 132
-0.468497 1.407242 -0.668066 150 144 132
-0.462468 1.411891 -0.670052 150 144 132
-0.456086 1.415344 -0.671517 150 144 132
-0.449823 1.419335 -0.673222 150 144 132
-0.443911 1.424799 -0.675575 151 145 133
-0.438136 1.430987 -0.678249 151 145 133
-0.43228 1.437052 -0.680871 152 146 134
-0.427047 1.445922 -0.684725 151 145 133
-0.421417 1.453441 -0.687991 152 146 133
-0.415008 1.457856 -0.689902 153 146 136
-0.409206 1.465128 -0.693066 154 147 137
-0.404191 1.476281 -0.697932 155 148 138
-0.397933 1.48211 -0.700471 155 147 137
-0.391985 1.489661 -0.703766 157 148 139
-0.387021 1.502381 -0.709326 158 149 140
-0.38028 1.506749 -0.711235 158 149 140
-0.373903 1.513182 -0.714051 157 148 139
-0.367572 1.520157 -0.717106 157 148 139
-0.361789 1.530472 -0.721626 159 150 141
-0.355594 1.539004 -0.725368 158 150 140
-0.34827 1.541447 -0.726449 148 139 129
-0.340861 1.543466 -0.727348 138 128 119
-0.33431 1.550861 -0.730601 22 16 9
-0.327704 1.558325 -0.733887 16 11 5
-0.32064 1.563217 -0.736051 13 8 3
-0.314838 1.577006 -0.74211 12 7 3
-0.309867 1.597618 -0.751158 18 13 8
-0.30226 1.600369 -0.752394 143 136 127
-0.295363 1.608694 -0.75607 144 136 127
-0.287939 1.613436 -0.758182 140 131 122
-0.280989 1.622443 -0.762163 141 132 122
-0.274416 1.635432 -0.76789 137 129 117
-0.266755 1.639718 -0.76981 120 111 98
-0.260139 1.654252 -0.77622 88 77 63
-0.252173 1.656747 -0.777362 71 58 44
-0.245536 1.673385 -0.784699 59 43 28
-0.238016 1.682022 -0.788536 62 39 25
-0.230684 1.693836 -0.793767 66 37 25
-0.222819 1.700394 -0.7967 67 37 26
-0.214759 1.705163 -0.798853 67 37 26
-0.206989 1.714697 -0.803095 67 37 26
-0.198796 1.719093 -0.80509 68 39 27
-0.190261 1.718406 -0.804862 67 38 24
-0.182359 1.729087 -0.809617 64 36 22
-0.174425 1.741195 -0.815001 65 37 22
-0.165977 1.744393 -0.816484 65 36 22
-0.157453 1.746371 -0.817436 63 34 20
-0.148943 1.749202 -0.818764 60 31 17
-0.140431 1.752799 -0.820432 57 27 16
-0.131403 1.736527 -0.813392 54 24 13
-0.123291 1.759014 -0.823349 54 24 13
-0.114617 1.757751 -0.822896 53 24 12
-0.106192 1.781899 -0.833592 53 25 13
-0.097419 1.779987 -0.832863 55 27 15
-0.08866 1.785585 -0.835431 57 29 18
-0.079865 1.788032 -0.836622 60 32 20
-0.07098 1.796639 -0.84052 61 33 21
-0.062001 1.805789 -0.844661 61 33 21
-0.05289 1.81689 -0.849664 61 33 21
-0.044126 1.810411 -0.846954 61 33 21
-0.035193 1.811435 -0.847542 62 34 22
-0.025633 1.829542 -0.855638 62 34 22
-0.016845 1.824413 -0.853533 61 33 21
-0.007299 1.836794 -0.859127 61 33 21
0.001948 1.84087 -0.861078 61 33 21
0.01134 1.846763 -0.863832 60 32 20
0.020847 1.853503 -0.866966 61 33 21
0.030058 1.854696 -0.867666 60 32 20
0.039239 1.855257 -0.868094 60 32 20
0.048199 1.852782 -0.867193 60 32 20
0.057875 1.859345 -0.870274 59 33 20
0.067155 1.860489 -0.870977 59 33 20
0.077268 1.870521 -0.8756 59 33 20
0.086535 1.870681 -0.875884 58 32 19
0.094852 1.861412 -0.872019 58 32 19
0.104922 1.869351 -0.875743 58 32 19
0.114789 1.874668 -0.87832 58 32 19
0.124386 1.877126 -0.879645 57 31 18
0.134153 1.880674 -0.881459 56 30 17
0.143016 1.876742 -0.879981 55 29 16
0.152723 1.879393 -0.881414 56 30 17
0.162096 1.879323 -0.881655 55 29 16
0.171434 1.878904 -0.88175 55 29 16
0.180618 1.87736 -0.881357 54 28 15
0.190155 1.878129 -0.881993 54 28 15
0.19981 1.87948 -0.882896 53 27 14
0.209378 1.880104 -0.883487 52 25 14
0.218002 1.874957 -0.881533 51 24 14
0.226156 1.867294 -0.878473 49 24 12
0.235096 1.864352 -0.877511 48 24 12
0.244419 1.863539 -0.8775 47 23 11
0.253767 1.862782 -0.877524 48 24 11
0.262428 1.8584 -0.87595 49 26 12
0.271751 1.857438 -0.875902 49 25 12
0.279367 1.848057 -0.872126 49 25 12
0.288374 1.845638 -0.87145 49 26 12
0.299648 1.853732 -0.875453 49 25 12
0.308181 1.848878 -0.873716 50 26 14
0.317922 1.849464 -0.874407 49 25 13
0.327286 1.84825 -0.874308 48 24 12
0.334352 1.837242 -0.869859 47 23 11
0.344268 1.838356 -0.870816 46 23 11
0.353906 1.838157 -0.8712 45 23 10
0.362632 1.834218 -0.869927 45 23 10
0.371264 1.829933 -0.868509 44 22 9
0.379795 1.825304 -0.866946 45 23 10
0.38796 1.819358 -0.864804 42 22 8
0.395889 1.812648 -0.862328 41 21 9
0.403355 1.80441 -0.859174 41 21 10
0.411475 1.798641 -0.857134 43 22 10
0.419707 1.793334 -0.855306 46 24 13
0.428958 1.791526 -0.855055 43 23 12
0.434224 1.776479 -0.848872 44 24 13
0.441535 1.76849 -0.845858 46 25 13
0.449543 1.762879 -0.843916 46 24 13
0.452983 1.743055 -0.835586 47 25 15
0.459769 1.734093 -0.83214 45 26 16
0.462269 1.712384 -0.822952 42 25 14
0.458999 1.67418 -0.806318 49 37 25
0.458401 1.644965 -0.793718 56 45 31
0.500217 1.683656 -0.812952 41 27 14
0.524188 1.723026 -0.831368 40 22 10
0.534415 1.724129 -0.832474 44 25 14
0.545482 1.727384 -0.834554 43 23 12
0.557578 1.733199 -0.837794 43 23 12
0.567126 1.73228 -0.837972 42 22 10
0.574649 1.726268 -0.835827 41 22 10
0.58233 1.720846 -0.833934 41 21 10
0.593747 1.724801 -0.836291 41 21 10
0.60266 1.722626 -0.835843 41 21 10
0.606239 1.707837 -0.829627 41 21 10
0.611844 1.698317 -0.825783 41 21 10
0.624081 1.704584 -0.829116 40 21 9
0.638144 1.714998 -0.834319 39 21 9
0.646454 1.712253 -0.833487 39 21 9
0.653178 1.706191 -0.831107 40 22 10
0.661276 1.703491 -0.83023 40 22 10
0.667845 1.697712 -0.827907 40 20 9
0.677192 1.698268 -0.828445 39 19 8
0.685536 1.696894 -0.828062 36 16 5
0.696454 1.701209 -0.830243 29 12 2
0.700538 1.69143 -0.825929 27 10 1
0.692911 1.657973 -0.810723 30 13 2
-0.828426 0.999604 -0.509878 104 98 84
-0.822436 0.999624 -0.509913 104 98 85
-0.819436 1.003695 -0.51178 104 98 84
-0.815851 1.00717 -0.513345 104 98 84
-0.812106 1.010597 -0.51486 105 99 85
-0.808758 1.014722 -0.516668 104 98 84
-0.805444 1.019062 -0.518548 105 99 85
-0.804711 1.027124 -0.522108 105 99 85
-0.80036 1.030389 -0.523443 105 99 85
-0.795072 1.032477 -0.524215 107 101 87
-0.789653 1.034484 -0.524928 107 101 87
-0.78562 1.038569 -0.526571 107 101 87
-0.782762 1.044483 -0.52903 110 104 90
-0.77976 1.050344 -0.531446 110 106 91
-0.775532 1.054547 -0.533085 112 107 93
-0.771986 1.059875 -0.535222 114 108 94
-0.766909 1.06302 -0.536348 116 110 96
-0.762585 1.067381 -0.538017 117 111 97
-0.758921 1.072846 -0.540177 116 113 98
-0.754811 1.077723 -0.542059 117 114 99
-0.750836 1.082897 -0.544067 118 113 99
-0.745197 1.085509 -0.544903 121 115 101
-0.740923 1.09034 -0.546742 123 117 103
-0.736301 1.094671 -0.548349 124 118 104
-0.732462 1.100341 -0.550561 125 119 105
-0.72946 1.10748 -0.553436 125 119 105
-0.724995 1.112262 -0.555239 128 122 108
-0.719224 1.114867 -0.556057 128 122 108
-0.714586 1.119419 -0.557757 129 123 109
-0.709749 1.123659 -0.559318 130 124 110
-0.70775 1.132933 -0.563154 130 124 110
-0.702288 1.136169 -0.564265 132 126 112
-0.697433 1.140501 -0.565874 132 126 112
-0.692613 1.144919 -0.567525 133 127 113
-0.688424 1.15053 -0.569718 134 128 114
-0.683302 1.154446 -0.571152 134 128 114
-0.67901 1.159946 -0.573303 136 130 116
-0.675369 1.166747 -0.576044 136 130 116
-0.671657 1.173492 -0.578764 137 131 117
-0.665474 1.175454 -0.579341 137 131 117
-0.660087 1.178966 -0.58062 137 131 117
-0.655568 1.184229 -0.582691 139 133 119
-0.651842 1.19116 -0.585515 139 133 119
-0.646992 1.195855 -0.587343 138 132 118
-0.641708 1.199674 -0.588785 140 134 120
-0.636633 1.203951 -0.590438 141 135 121
-0.631735 1.208633 -0.592279 142 136 122
-0.629341 1.218812 -0.596584 142 136 122
-0.624068 1.222818 -0.598134 142 136 122
-0.620496 1.230655 -0.601402 143 137 123
-0.614974 1.234196 -0.602757 141 138 123
-0.609407 1.237647 -0.604078 142 138 126
-0.60435 1.242298 -0.605942 143 139 127
-0.60132 1.251789 -0.60997 144 141 127
-0.597172 1.258787 -0.612892 144 141 126
-0.591836 1.263016 -0.614584 144 141 126
-0.586997 1.268511 -0.616847 144 141 126
-0.582253 1.274322 -0.619256 145 140 125
-0.577489 1.280178 -0.621691 145 140 128
-0.572363 1.285197 -0.623759 145 141 128
-0.567211 1.290221 -0.625835 145 140 127
-0.562079 1.295375 -0.627974 147 141 128
-0.557257 1.301447 -0.630527 146 140 127
-0.552114 1.306756 -0.632746 146 141 127
-0.546812 1.311717 -0.634815 146 141 127
-0.541837 1.317689 -0.637339 146 141 127
-0.536638 1.323135 -0.639634 146 141 127
-0.530962 1.3273 -0.641366 147 141 128
-0.52521 1.33131 -0.643033 147 142 129
-0.519993 1.336995 -0.64545 147 142 129
-0.516202 1.347168 -0.649863 147 142 130
-0.512269 1.357182 -0.65421 148 142 130
-0.50656 1.361853 -0.656189 148 143 131
-0.500996 1.367088 -0.658423 149 143 131
-0.494673 1.369959 -0.659613 149 143 131
-0.487401 1.369702 -0.65942 149 143 131
-0.482116 1.37613 -0.662197 149 143 131
-0.476946 1.383135 -0.665234 149 143 131
-0.472942 1.394458 -0.67019 149 143 131
-0.468001 1.40279 -0.673823 149 143 131
-0.462428 1.409067 -0.676549 149 143 131
-0.456081 1.412643 -0.678081 149 143 131
-0.450019 1.417391 -0.680136 149 143 131
-0.444215 1.423283 -0.682702 149 143 131
-0.438567 1.429987 -0.685632 150 144 132
-0.432662 1.435874 -0.688204 150 144 132
-0.427639 1.445628 -0.692492 151 145 133
-0.421589 1.451403 -0.69502 152 146 133
-0.415395 1.456754 -0.697364 152 145 134
-0.409243 1.462489 -0.699882 152 145 135
-0.40432 1.474034 -0.704977 153 146 136
-0.398425 1.481555 -0.708293 154 147 137
-0.392146 1.487562 -0.71094 155 148 138
-0.387514 1.501895 -0.71728 155 147 138
-0.381103 1.50797 -0.719964 156 148 139
-0.374265 1.512105 -0.721791 156 148 138
-0.367837 1.518591 -0.724663 156 147 138
-0.361453 1.525628 -0.727782 157 148 139
-0.355441 1.535106 -0.731986 157 149 139
-0.348367 1.538947 -0.733695 148 140 129
-0.340996 1.541193 -0.7347 136 127 117
-0.334262 1.547447 -0.737483 33 25 18
-0.32822 1.558458 -0.742378 18 11 7
-0.321758 1.567395 -0.746356 133 126 118
-0.315125 1.575728 -0.75007 147 140 131
-0.308411 1.58404 -0.753777 144 138 128
-0.30219 1.596516 -0.759332 143 135 125
-0.294636 1.599766 -0.760802 141 132 121
-0.287954 1.61012 -0.765422 132 124 113
-0.280748 1.616955 -0.768487 99 90 77
-0.274141 1.629497 -0.774083 82 71 57
-0.267642 1.644103 -0.780598 70 53 39
-0.260286 1.651935 -0.784113 61 40 26
-0.254016 1.671288 -0.792738 59 37 23
-0.246361 1.67814 -0.795825 60 36 22
-0.238494 1.683346 -0.798185 62 35 23
-0.230888 1.692141 -0.80214 65 37 25
-0.22291 1.697352 -0.804508 65 37 25
-0.214845 1.702009 -0.806635 68 38 27
-0.206747 1.706794 -0.80882 67 37 26
-0.198663 1.712449 -0.811395 68 38 27
-0.189995 1.709216 -0.81003 67 38 26
-0.181653 1.711236 -0.810999 64 36 24
-0.173655 1.720469 -0.81517 65 37 25
-0.166012 1.73962 -0.823747 63 35 22
-0.15751 1.741899 -0.824841 61 34 20
-0.148613 1.733272 -0.821097 59 31 17
-0.139566 1.716498 -0.81374 58 28 16
-0.131649 1.738786 -0.823725 55 26 15
-0.123246 1.747447 -0.827665 56 26 15
-0.114488 1.737293 -0.823255 56 26 15
-0.106294 1.776438 -0.840742 56 26 15
-0.097553 1.779224 -0.842088 57 27 16
-0.088795 1.770607 -0.838371 60 30 19
-0.080102 1.766155 -0.836508 61 32 20
-0.071375 1.769097 -0.837934 61 33 21
-0.062595 1.773554 -0.840037 61 33 21
-0.053592 1.786545 -0.845939 62 34 22
-0.044661 1.791735 -0.848379 62 34 22
-0.036082 1.783924 -0.845042 62 34 22
-0.026734 1.799572 -0.852143 61 33 21
-0.0175 1.808572 -0.856293 61 33 21
-0.008519 1.810119 -0.857134 60 32 20
0.001189 1.825492 -0.864133 61 33 21
0.010527 1.8315 -0.866971 60 32 20
0.019539 1.831152 -0.866986 60 32 20
0.028476 1.82968 -0.866506 60 32 20
0.037913 1.835354 -0.869214 60 32 20
0.047203 1.838292 -0.87071 59 31 19
0.056359 1.839151 -0.871286 58 32 19
0.065316 1.837554 -0.870774 58 32 19
0.076127 1.85626 -0.879319 58 32 19
0.08367 1.839173 -0.871914 58 32 19
0.093868 1.849773 -0.876862 58 32 19
0.103475 1.853756 -0.878866 58 32 19
0.113414 1.860249 -0.881999 58 32 19
0.122853 1.861824 -0.882946 56 30 17
0.131331 1.855311 -0.880288 56 30 17
0.141288 1.860839 -0.883015 55 29 16
0.150057 1.856877 -0.88151 56 30 17
0.159854 1.860577 -0.883439 54 28 15
0.169701 1.864264 -0.88537 53 28 15
0.179235 1.865467 -0.8862 52 26 15
0.18837 1.863873 -0.885788 53 26 14
0.196573 1.856382 -0.882743 51 24 13
0.205636 1.854513 -0.882224 51 25 14
0.213355 1.844669 -0.878139 51 25 13
0.223146 1.847221 -0.879618 49 24 12
0.23384 1.854555 -0.88325 48 24 12
0.24271 1.851447 -0.882212 48 24 12
0.2508 1.844266 -0.879354 47 24 11
0.26002 1.84315 -0.879227 48 25 12
0.269601 1.843771 -0.87989 48 24 12
0.278249 1.839681 -0.878447 48 24 11
0.287087 1.836568 -0.877452 48 24 11
0.295831 1.833036 -0.876278 49 25 13
0.304079 1.827295 -0.874119 49 25 13
0.31487 1.832926 -0.877091 49 25 13
0.323868 1.830419 -0.876409 49 25 13
0.332963 1.828293 -0.87591 49 25 13
0.341552 1.824033 -0.874458 48 24 12
0.350992 1.823254 -0.874587 47 24 11
0.360565 1.822893 -0.874916 46 24 11
0.370108 1.822288 -0.875146 45 23 10
0.379088 1.819431 -0.874369 44 22 9
0.38501 1.805215 -0.86846 44 22 9
0.391723 1.794297 -0.864049 43 22 11
0.399998 1.789233 -0.862295 43 22 11
0.407904 1.782939 -0.859991 45 23 12
0.416181 1.778021 -0.858318 45 23 12
0.423742 1.770749 -0.855584 44 23 12
0.434214 1.773215 -0.85728 44 23 12
0.441481 1.765084 -0.854168 46 24 13
0.448936 1.757722 -0.85141 46 24 13
0.45566 1.748217 -0.847679 47 25 13
0.463898 1.743576 -0.846166 46 24 11
0.471723 1.737741 -0.844112 46 25 14
0.48053 1.734915 -0.843434 44 24 13
0.489514 1.732603 -0.842993 45 25 13
0.493247 1.715236 -0.835669 42 26 13
0.498056 1.701393 -0.829948 40 24 11
0.507767 1.701521 -0.830618 41 23 11
0.523318 1.717526 -0.838567 41 23 11
0.533918 1.719684 -0.840172 42 23 11
0.54303 1.717806 -0.839921 42 22 11
0.552481 1.716847 -0.840086 42 22 11
0.563245 1.719281 -0.841802 43 23 10
0.568546 1.707845 -0.837127 42 23 10
0.577513 1.705899 -0.836803 43 23 12
0.587169 1.705738 -0.837285 42 22 11
0.597889 1.708216 -0.838967 42 22 11
0.607089 1.707074 -0.838961 41 21 10
0.609887 1.690991 -0.832031 41 22 10
0.617042 1.685566 -0.829993 39 21 9
0.631325 1.696745 -0.835602 39 21 9
0.639841 1.694737 -0.835087 40 22 10
0.648586 1.693454 -0.834875 40 21 10
0.657241 1.692184 -0.834634 41 21 10
0.667067 1.693694 -0.835644 40 20 9
0.674888 1.691057 -0.834695 40 20 9
0.687364 1.698613 -0.838431 37 17 6
0.695461 1.697019 -0.837884 31 13 1
0.697375 1.682839 -0.831457 32 14 2
0.699876 1.670424 -0.825803 32 15 3
-0.830863 1.001211 -0.516749 105 99 85
-0.826033 1.002729 -0.517489 104 98 84
-0.820688 1.003711 -0.517949 103 97 83
-0.817235 1.007329 -0.519607 104 98 84
-0.813917 1.011297 -0.5214 104 98 84
-0.810775 1.015674 -0.523354 105 99 85
-0.806482 1.018661 -0.524634 105 99 85
-0.802659 1.022436 -0.526254 106 100 86
-0.800591 1.0288 -0.52905 106 100 86
-0.794735 1.030056 -0.529448 106 100 86
-0.79012 1.033157 -0.530679 107 101 87
-0.786584 1.03792 -0.53266 108 102 88
-0.783738 1.043821 -0.535147 110 104 90
-0.779503 1.047861 -0.53675 110 106 91
-0.7785 1.056773 -0.540592 111 107 92
-0.773811 1.060411 -0.541972 115 109 95
-0.768316 1.062928 -0.542819 115 109 95
-0.763379 1.066351 -0.544072 117 111 97
-0.758921 1.070581 -0.545686 118 112 98
-0.755573 1.076614 -0.548122 117 114 99
-0.750063 1.079366 -0.549034 118 114 100
-0.747863 1.087407 -0.552378 122 116 102
-0.741087 1.088249 -0.552397 123 117 103
-0.736874 1.09323 -0.554318 124 118 104
-0.734827 1.101835 -0.557901 125 119 105
-0.729522 1.105174 -0.559059 126 120 106
-0.726584 1.112509 -0.562051 126 120 106
-0.718885 1.111862 -0.561378 128 122 108
-0.715863 1.119174 -0.564358 128 122 108
-0.713634 1.127969 -0.568016 129 123 109
-0.708027 1.130955 -0.569013 131 125 111
-0.70316 1.135252 -0.570614 131 125 111
-0.698127 1.139276 -0.572093 132 126 112
-0.692825 1.142827 -0.57336 133 127 113
-0.688065 1.147381 -0.575089 134 128 114
-0.684026 1.153312 -0.577451 134 128 114
-0.679024 1.15748 -0.579014 135 129 115
-0.676645 1.16669 -0.582879 136 130 116
-0.671677 1.171022 -0.584525 136 130 116
-0.666225 1.174427 -0.585755 136 130 116
-0.660299 1.176885 -0.586561 137 131 117
-0.655965 1.182524 -0.58882 138 132 118
-0.651517 1.187988 -0.591005 139 133 119
-0.647795 1.195004 -0.5939 138 132 118
-0.642174 1.198141 -0.59504 139 133 119
-0.63827 1.20491 -0.597835 140 134 121
-0.633497 1.209909 -0.599833 141 135 121
-0.628187 1.213781 -0.601326 142 136 122
-0.624457 1.221157 -0.604413 142 136 122
-0.620306 1.227704 -0.60713 142 136 122
-0.615581 1.233047 -0.609308 144 138 125
-0.610901 1.238554 -0.611567 143 138 126
-0.606673 1.245181 -0.614338 145 139 126
-0.602022 1.250914 -0.61671 145 140 127
-0.59719 1.256293 -0.618928 143 140 125
-0.591886 1.260601 -0.620669 143 140 125
-0.586406 1.264518 -0.62224 143 140 125
-0.582278 1.271843 -0.625355 145 139 125
-0.578194 1.279419 -0.628588 146 139 127
-0.573246 1.284919 -0.630891 146 139 126
-0.567623 1.288746 -0.632445 145 139 125
-0.562232 1.293229 -0.6343 145 140 125
-0.557621 1.299871 -0.637134 145 139 125
-0.552836 1.306167 -0.639817 145 139 125
-0.547934 1.312265 -0.642417 145 140 126
-0.542022 1.31564 -0.643795 145 140 126
-0.536277 1.319532 -0.645413 145 140 126
-0.530834 1.324356 -0.647454 146 140 127
-0.525386 1.329256 -0.649535 146 141 127
-0.520507 1.335957 -0.652432 146 141 128
-0.516826 1.346477 -0.65705 146 141 128
-0.511181 1.35119 -0.659062 147 141 129
-0.505291 1.355226 -0.660774 147 142 129
-0.500286 1.362184 -0.663803 147 142 130
-0.494205 1.365803 -0.665338 148 142 130
-0.488206 1.369763 -0.667029 148 142 130
-0.482755 1.375669 -0.6696 148 142 130
-0.47829 1.385137 -0.673775 148 142 130
-0.47413 1.395981 -0.678571 148 142 130
-0.468775 1.402888 -0.681604 148 142 130
-0.462399 1.406272 -0.683058 148 142 130
-0.456101 1.410018 -0.684679 148 142 130
-0.450476 1.416426 -0.687499 148 142 130
-0.444907 1.423256 -0.690512 149 143 131
-0.43895 1.428774 -0.69294 149 143 131
-0.433118 1.434979 -0.69568 150 144 132
-0.427519 1.442363 -0.698953 150 144 132
-0.421751 1.449304 -0.702031 151 145 133
-0.415533 1.454556 -0.704354 152 146 134
-0.409868 1.46245 -0.707865 152 145 134
-0.404173 1.470526 -0.711463 152 145 135
-0.398544 1.479246 -0.715352 153 146 136
-0.392406 1.485918 -0.718325 153 146 136
-0.387341 1.498128 -0.723787 154 147 137
-0.381078 1.5049 -0.726811 154 147 137
-0.374885 1.512341 -0.730139 154 147 137
-0.368052 1.516745 -0.732108 154 146 137
-0.361514 1.522946 -0.734886 155 147 137
-0.355354 1.531573 -0.738755 156 148 138
-0.3486 1.537226 -0.741293 149 141 131
-0.34161 1.541767 -0.743335 140 132 121
-0.33486 1.548007 -0.746142 150 141 133
-0.328492 1.557024 -0.750198 150 141 134
-0.322323 1.567902 -0.755092 147 139 130
-0.31547 1.574827 -0.758216 145 137 125
-0.308263 1.579707 -0.760424 139 132 120
-0.301981 1.591649 -0.765805 116 108 96
-0.294861 1.598091 -0.76872 90 80 67
-0.287641 1.604205 -0.771492 77 64 52
-0.281765 1.621843 -0.779438 56 39 25
-0.275114 1.634305 -0.785064 58 37 23
-0.267887 1.642668 -0.788854 62 36 24
-0.260247 1.647867 -0.791227 64 37 24
-0.252581 1.653262 -0.793691 64 37 25
-0.24658 1.676542 -0.804186 63 35 23
-0.238525 1.679717 -0.80566 64 37 23
-0.230411 1.682492 -0.806957 64 35 24
-0.222623 1.6896 -0.810202 64 36 24
-0.214276 1.690165 -0.810513 65 36 25
-0.206547 1.699523 -0.814776 65 37 25
-0.198178 1.700433 -0.815248 64 36 24
-0.190058 1.705549 -0.817611 66 37 25
-0.181324 1.700346 -0.815344 65 37 25
-0.172656 1.695307 -0.813152 64 37 25
-0.163915 1.687372 -0.809662 65 41 29
-0.15551 1.685773 -0.809022 138 125 110
-0.147505 1.69509 -0.813289 127 113 99
-0.139272 1.69977 -0.815477 71 50 36
-0.130933 1.701928 -0.816535 58 33 21
-0.12274 1.712446 -0.821355 55 28 17
-0.114353 1.716779 -0.823399 57 28 17
-0.105926 1.721209 -0.82549 58 29 18
-0.097514 1.738744 -0.833479 60 30 20
-0.088932 1.748971 -0.838187 61 32 21
-0.080273 1.754816 -0.840929 61 33 21
-0.071556 1.760794 -0.843736 61 33 21
-0.062782 1.766565 -0.846454 61 33 21
-0.054007 1.769635 -0.847962 61 33 21
-0.045243 1.771108 -0.848756 61 33 21
-0.03656 1.769512 -0.848173 62 34 22
-0.027107 1.789643 -0.857378 61 33 21
-0.018098 1.794034 -0.859503 61 33 21
-0.009191 1.795201 -0.86018 59 33 20
0.000459 1.810602 -0.867276 59 33 20
0.00997 1.820729 -0.872004 59 33 20
0.018852 1.818879 -0.871341 58 32 19
0.027545 1.814412 -0.869503 60 31 20
0.037066 1.822097 -0.873149 60 32 20
0.045959 1.820512 -0.872622 58 30 18
0.05465 1.816572 -0.871038 57 31 18
0.0634 1.813698 -0.869941 58 32 19
0.072184 1.81144 -0.869128 57 31 18
0.08221 1.822158 -0.87418 58 32 19
0.092069 1.830093 -0.877984 57 31 18
0.102215 1.839869 -0.882629 58 32 19
0.111359 1.839736 -0.882806 57 31 18
0.120402 1.838663 -0.882566 57 31 18
0.130254 1.844202 -0.885322 57 31 18
0.138519 1.836747 -0.882211 56 30 17
0.147533 1.83542 -0.881878 54 28 15
0.156783 1.835808 -0.88233 53 28 15
0.166903 1.842143 -0.885483 51 28 14
0.176991 1.847722 -0.888304 50 26 14
0.185632 1.843371 -0.886637 51 24 13
0.193742 1.835841 -0.883536 49 25 13
0.201924 1.829113 -0.880806 50 24 13
0.21121 1.829224 -0.881186 48 24 12
0.220354 1.828398 -0.881149 48 24 12
0.230591 1.833601 -0.88386 48 24 12
0.238641 1.826526 -0.881006 48 24 12
0.248088 1.82708 -0.881626 48 24 12
0.257994 1.82984 -0.88326 48 24 12
0.267681 1.831228 -0.884282 48 24 12
0.276928 1.830273 -0.884249 48 24 11
0.286045 1.828617 -0.883908 48 24 12
0.29445 1.823615 -0.882052 48 24 12
0.302188 1.815706 -0.878881 48 24 12
0.310722 1.811543 -0.877425 48 24 12
0.320982 1.814868 -0.879396 48 24 12
0.330656 1.815444 -0.880126 48 24 12
0.33878 1.809467 -0.877873 48 24 12
0.346726 1.802893 -0.875357 48 24 12
0.354741 1.796735 -0.873038 48 24 12
0.361324 1.785171 -0.868254 46 23 11
0.368901 1.777704 -0.865351 46 24 11
0.378918 1.779428 -0.866667 47 24 11
0.387942 1.777342 -0.866249 46 23 11
0.39645 1.773371 -0.864975 45 23 12
0.404794 1.768842 -0.863454 46 23 12
0.412152 1.760983 -0.86041 46 23 12
0.42407 1.768584 -0.864482 47 23 13
0.430729 1.75846 -0.860411 45 23 12
0.437801 1.749913 -0.857068 46 24 13
0.445839 1.744621 -0.85523 45 23 12
0.451641 1.732428 -0.850212 43 23 9
0.462675 1.736575 -0.852736 43 23 10
0.471818 1.734783 -0.852527 42 22 11
0.479577 1.728857 -0.85041 44 24 13
0.487547 1.723653 -0.848628 46 24 13
0.499268 1.729266 -0.851855 44 25 13
0.496539 1.693971 -0.836126 43 24 13
0.5102 1.705115 -0.841915 44 24 13
0.52196 1.710671 -0.845116 43 23 12
0.528852 1.702965 -0.842157 43 23 12
0.540195 1.707214 -0.844747 42 22 11
0.54994 1.707164 -0.845333 43 23 12
0.557595 1.701764 -0.843418 41 22 9
0.567055 1.70109 -0.843692 42 23 9
0.575959 1.699086 -0.843331 42 22 11
0.585161 1.697915 -0.843342 42 22 11
0.593929 1.695791 -0.842889 41 21 10
0.602993 1.694514 -0.842809 42 22 11
0.610531 1.689783 -0.84109 42 22 11
0.616919 1.682631 -0.838209 41 21 10
0.626023 1.682012 -0.838355 42 22 11
0.635662 1.682766 -0.839113 41 22 10
0.644887 1.682746 -0.839475 40 20 9
0.65557 1.686121 -0.841394 40 20 9
0.66661 1.69039 -0.843697 40 20 9
0.675687 1.690546 -0.844031 39 19 8
0.683302 1.68782 -0.842972 35 15 4
0.693526 1.690874 -0.844583 32 14 2
0.702567 1.691653 -0.845082 35 17 5
0.71754 1.704873 -0.85138 33 17 4
-0.827635 0.995509 -0.520208 103 98 84
-0.828 1.003711 -0.524117 104 98 84
-0.821403 1.003028 -0.523805 103 97 83
-0.817155 1.005554 -0.524977 104 98 84
-0.81522 1.011321 -0.527648 104 98 84
-0.811253 1.014554 -0.529094 105 99 85
-0.807794 1.018634 -0.530911 105 99 85
-0.803167 1.021278 -0.532023 105 100 85
-0.798641 1.024195 -0.533238 106 100 86
-0.794681 1.028037 -0.534861 107 101 87
-0.790255 1.031363 -0.536217 108 102 88
-0.787648 1.037408 -0.538829 110 104 90
-0.784521 1.042877 -0.541147 110 104 90
-0.782184 1.049649 -0.544056 111 105 91
-0.778194 1.054168 -0.545884 113 107 93
-0.775064 1.060082 -0.548351 114 108 94
-0.769755 1.062869 -0.549332 113 109 95
-0.763992 1.065035 -0.550009 114 110 95
-0.759559 1.069284 -0.55165 118 112 98
-0.75468 1.072927 -0.552995 118 113 98
-0.750846 1.078268 -0.555126 120 114 100
-0.747407 1.084331 -0.557584 121 115 101
-0.7425 1.088146 -0.558985 123 117 103
-0.739803 1.095587 -0.562073 123 117 103
-0.733674 1.097533 -0.562591 124 118 104
-0.733692 1.109658 -0.56785 125 119 105
-0.725135 1.107635 -0.566516 126 120 106
-0.722459 1.115476 -0.569773 128 122 108
-0.719372 1.122731 -0.572756 128 122 108
-0.714168 1.126414 -0.574078 128 122 108
-0.708853 1.129918 -0.575319 130 124 110
-0.703494 1.133353 -0.576532 131 125 111
-0.698398 1.137266 -0.577969 132 126 112
-0.694077 1.142603 -0.580069 132 126 112
-0.691843 1.151836 -0.583975 133 127 113
-0.686462 1.15534 -0.585234 134 128 114
-0.679616 1.156083 -0.585222 134 128 115
-0.677507 1.165809 -0.589366 135 129 116
-0.672165 1.169437 -0.590699 135 129 117
-0.666595 1.172623 -0.591833 136 130 116
-0.661435 1.176614 -0.593345 136 130 116
-0.656381 1.180833 -0.594969 138 132 118
-0.652235 1.186919 -0.597458 138 132 118
-0.648243 1.19339 -0.60013 138 132 118
-0.644488 1.200437 -0.603073 139 133 119
-0.640133 1.206313 -0.605482 140 134 120
-0.635403 1.211453 -0.607559 140 134 122
-0.629977 1.215132 -0.608972 141 135 121
-0.624699 1.219147 -0.610547 142 136 122
-0.620354 1.225266 -0.613093 142 136 122
-0.617334 1.234458 -0.617054 143 137 125
-0.612519 1.239711 -0.619214 143 137 125
-0.607376 1.244261 -0.62106 144 138 126
-0.60232 1.24906 -0.623025 145 139 126
-0.597254 1.25389 -0.625011 144 139 125
-0.59179 1.257812 -0.626588 143 140 125
-0.586475 1.262131 -0.628354 143 139 124
-0.582409 1.269608 -0.631569 144 138 124
-0.578864 1.278542 -0.635455 144 138 125
-0.573701 1.283515 -0.637538 145 139 126
-0.568178 1.287621 -0.639229 145 139 125
-0.563331 1.293561 -0.641765 144 139 125
-0.558345 1.299236 -0.644185 144 139 124
-0.553718 1.305988 -0.647102 144 139 124
-0.548294 1.310674 -0.649082 144 139 125
-0.542563 1.314574 -0.650708 144 139 125
-0.536779 1.318376 -0.652297 144 139 125
-0.53104 1.322363 -0.653975 144 139 125
-0.526114 1.328806 -0.656777 145 139 126
-0.521356 1.3359 -0.659881 145 140 126
-0.516715 1.343522 -0.663231 145 140 127
-0.509192 1.3424 -0.662603 145 140 127
-0.504692 1.350711 -0.666275 146 140 127
-0.499694 1.357647 -0.669326 146 141 128
-0.494262 1.36335 -0.671821 146 141 128
-0.488765 1.368982 -0.674287 147 141 128
-0.483323 1.374939 -0.676906 147 141 128
-0.479062 1.385132 -0.681457 147 141 128
-0.474809 1.395681 -0.686173 147 141 129
-0.469648 1.403317 -0.689568 147 141 129
-0.463011 1.405803 -0.690624 147 141 129
-0.456716 1.409602 -0.692283 147 141 129
-0.451145 1.416246 -0.695239 147 141 129
-0.445512 1.422866 -0.698188 148 142 130
-0.439646 1.428781 -0.70082 148 142 130
-0.433762 1.43482 -0.703513 148 142 130
-0.428155 1.442214 -0.706825 149 143 131
-0.421925 1.447243 -0.709066 149 143 131
-0.415844 1.453088 -0.711681 150 144 132
-0.410047 1.460409 -0.71497 151 145 133
-0.404449 1.468924 -0.718806 151 144 133
-0.398557 1.476431 -0.722187 152 145 135
-0.392451 1.483234 -0.725251 152 145 135
-0.38678 1.492457 -0.729418 153 146 136
-0.380853 1.500821 -0.733198 153 146 136
-0.374946 1.509678 -0.737205 154 147 137
-0.368368 1.515421 -0.739801 154 146 137
-0.361706 1.520972 -0.742312 155 147 138
-0.355636 1.530101 -0.746453 154 147 137
-0.349118 1.537138 -0.749645 151 142 133
-0.342317 1.542866 -0.752246 143 135 124
-0.335935 1.551466 -0.756156 148 140 129
-0.329039 1.557316 -0.758819 146 138 126
-0.32205 1.562898 -0.761363 140 132 119
-0.315877 1.574338 -0.766571 94 85 70
-0.309555 1.585499 -0.771656 80 69 54
-0.302877 1.594841 -0.775918 60 44 30
-0.2955 1.599549 -0.778077 52 32 18
-0.288163 1.60489 -0.780527 52 26 14
-0.282513 1.624484 -0.789456 54 29 17
-0.275784 1.636475 -0.794934 60 34 21
-0.268139 1.641282 -0.79715 62 34 22
-0.260114 1.642904 -0.797922 64 36 24
-0.25254 1.649084 -0.800769 65 37 25
-0.246156 1.66823 -0.809511 66 38 25
-0.236995 1.658913 -0.805322 68 39 25
-0.229509 1.667927 -0.809466 67 38 26
-0.221588 1.672614 -0.811647 65 37 24
-0.213906 1.681021 -0.815522 65 37 24
-0.20544 1.679429 -0.814855 64 37 25
-0.1975 1.685542 -0.817694 62 36 24
-0.189846 1.697336 -0.82312 61 37 25
-0.180728 1.684684 -0.817433 77 58 46
-0.171431 1.665776 -0.808903 139 126 113
-0.163548 1.673917 -0.812677 64 57 44
-0.155047 1.668541 -0.810307 22 17 8
-0.146913 1.672028 -0.811971 40 34 22
-0.138454 1.66563 -0.809142 41 36 24
-0.130443 1.674591 -0.813304 113 101 88
-0.122333 1.682965 -0.817203 115 101 88
-0.114027 1.683525 -0.817551 69 48 36
-0.105908 1.704093 -0.82701 60 35 24
-0.097531 1.712986 -0.83116 58 30 20
-0.089065 1.7229 -0.83578 59 32 20
-0.080523 1.729016 -0.838676 62 34 22
-0.07199 1.728662 -0.838629 63 35 23
-0.063218 1.743618 -0.845561 62 34 22
-0.054309 1.757948 -0.852215 62 34 22
-0.045695 1.755333 -0.851154 61 33 21
-0.037129 1.752035 -0.849785 60 32 20
-0.028447 1.752817 -0.850281 60 33 20
-0.019275 1.765303 -0.856118 60 33 20
-0.010122 1.7746 -0.860508 59 33 20
-0.00113 1.778883 -0.862618 58 32 19
0.007535 1.77656 -0.861721 58 32 19
0.016542 1.780121 -0.863514 58 32 19
0.025105 1.776413 -0.861995 59 31 19
0.03433 1.782403 -0.864909 59 31 19
0.043416 1.785739 -0.866618 58 31 20
0.053579 1.801754 -0.874125 58 31 20
0.062014 1.795922 -0.871662 58 32 20
0.070819 1.794687 -0.871304 57 31 18
0.080644 1.804019 -0.875783 57 31 18
0.089683 1.804643 -0.87629 57 31 18
0.100564 1.8223 -0.884595 57 30 18
0.109837 1.823952 -0.885589 57 30 18
0.118537 1.820483 -0.884249 55 29 16
0.127535 1.819642 -0.884118 55 29 17
0.136482 1.818382 -0.883803 54 27 16
0.145537 1.817927 -0.883865 52 27 15
0.154787 1.818822 -0.884554 50 26 14
0.162917 1.811718 -0.881586 50 27 13
0.172552 1.815156 -0.883458 50 25 14
0.182091 1.817628 -0.884897 51 24 13
0.19064 1.813586 -0.883357 48 24 12
0.199072 1.808971 -0.881562 48 24 12
0.208366 1.809629 -0.882197 48 24 12
0.218572 1.815364 -0.885174 47 23 11
0.222535 1.785858 -0.871966 47 23 11
0.235656 1.807481 -0.882267 47 23 11
0.24557 1.810909 -0.884217 47 23 11
0.255351 1.813344 -0.885723 47 23 11
0.26425 1.811121 -0.885095 48 24 12
0.273283 1.809538 -0.884772 48 24 12
0.282712 1.809778 -0.885301 48 24 12
0.29208 1.809587 -0.885642 47 23 11
0.300171 1.803518 -0.883282 48 24 12
0.308644 1.799279 -0.881776 48 24 12
0.318424 1.800722 -0.882903 48 24 12
0.326652 1.795435 -0.880934 47 24 11
0.334104 1.787058 -0.877543 47 23 11
0.342167 1.781366 -0.875403 48 24 12
0.351214 1.779644 -0.87511 46 22 10
0.359316 1.774222 -0.873113 48 24 12
0.367182 1.767992 -0.87075 47 23 11
0.375879 1.764949 -0.869874 47 23 11
0.384494 1.761594 -0.868862 47 23 11
0.393793 1.760662 -0.868986 47 23 13
0.40171 1.754825 -0.86684 47 24 13
0.408096 1.743853 -0.862311 47 23 13
0.411099 1.721837 -0.852642 48 24 12
0.419257 1.717454 -0.851185 47 24 12
0.43106 1.724866 -0.855235 46 23 11
0.440865 1.725567 -0.856166 44 23 10
0.447324 1.715718 -0.852179 44 24 11
0.459237 1.722777 -0.856096 46 25 13
0.469331 1.724023 -0.857304 43 23 12
0.476335 1.716013 -0.854185 43 23 12
0.484059 1.710269 -0.852127 42 22 11
0.48853 1.695355 -0.845766 42 22 11
0.496348 1.690256 -0.844002 42 22 11
0.503433 1.683234 -0.841332 42 22 11
0.514815 1.688071 -0.844229 41 22 10
0.525525 1.690921 -0.846191 42 22 11
0.534332 1.688645 -0.845737 42 22 10
0.546826 1.695994 -0.849809 43 24 11
0.553287 1.687711 -0.846505 42 23 9
0.563606 1.689403 -0.84789 43 24 11
0.5754 1.69474 -0.850984 42 23 10
0.57878 1.679403 -0.844294 43 23 12
0.589225 1.681598 -0.845865 42 22 11
0.599492 1.683397 -0.847229 42 22 11
0.60878 1.682951 -0.847506 40 20 9
0.61663 1.679312 -0.846242 41 21 10
0.625586 1.678432 -0.846255 41 21 10
0.633352 1.675046 -0.845047 41 21 10
0.643288 1.676746 -0.846215 42 22 11
0.65252 1.677046 -0.846684 41 21 10
0.663782 1.681948 -0.849299 39 19 8
0.674097 1.684916 -0.850957 39 19 8
0.683014 1.685077 -0.851238 36 16 5
0.689347 1.680049 -0.84901 34 14 3
0.694219 1.672348 -0.845465 34 16 4
0.692173 1.650852 -0.835315 32 16 3
-0.829906 0.996923 -0.527011 103 98 85
-0.827297 1.001229 -0.529117 102 98 83
-0.824239 1.005134 -0.531002 103 97 83
-0.816246 1.002698 -0.529823 104 98 84
-0.814643 1.008843 -0.532717 105 99 85
-0.811855 1.013608 -0.534922 104 98 84
-0.805937 1.014312 -0.535155 105 100 86
-0.803785 1.020275 -0.537873 103 100 85
-0.799556 1.023566 -0.539286 106 101 87
-0.795244 1.026883 -0.540684 107 101 87
-0.793618 1.034118 -0.543926 108 102 88
-0.790724 1.039755 -0.54638 110 104 90
-0.786064 1.043022 -0.54768 110 104 90
-0.7818 1.046975 -0.549284 113 107 93
-0.778917 1.053071 -0.551889 112 106 92
-0.7744 1.056903 -0.553396 114 108 94
-0.770962 1.062449 -0.555701 114 110 95
-0.765449 1.064985 -0.55656 114 111 96
-0.760396 1.06828 -0.557766 118 112 98
-0.756238 1.073026 -0.559648 117 113 98
-0.751112 1.076347 -0.560844 119 113 99
-0.746625 1.080731 -0.562535 120 114 100
-0.744138 1.088378 -0.565763 122 116 102
-0.738951 1.0918 -0.566984 123 117 103
-0.733221 1.09437 -0.567797 124 118 104
-0.733085 1.106197 -0.572981 125 119 105
-0.727276 1.108759 -0.573784 126 120 106
-0.721522 1.111414 -0.57463 127 121 107
-0.719339 1.12018 -0.578356 128 122 108
-0.715077 1.125486 -0.580451 128 122 108
-0.709673 1.128846 -0.581631 128 123 109
-0.704376 1.132403 -0.582906 131 125 111
-0.699227 1.136235 -0.584314 132 126 112
-0.695531 1.142718 -0.586969 132 126 112
-0.691117 1.14796 -0.589045 133 127 113
-0.687983 1.155627 -0.592262 133 127 113
-0.681729 1.157524 -0.592779 134 128 115
-0.675985 1.160355 -0.593739 133 127 115
-0.672852 1.168211 -0.597056 134 128 116
-0.66752 1.17188 -0.59842 135 129 116
-0.662158 1.175495 -0.599765 136 130 116
-0.65823 1.181988 -0.602461 136 130 116
-0.654039 1.188025 -0.604948 137 131 117
-0.649458 1.193329 -0.6071 137 131 117
-0.645813 1.200631 -0.610189 138 132 119
-0.641228 1.206055 -0.612408 139 133 121
-0.636701 1.211657 -0.614716 139 133 121
-0.631334 1.215503 -0.616214 140 134 122
-0.625657 1.218685 -0.617411 141 135 121
-0.620711 1.223491 -0.61937 140 134 120
-0.617969 1.233313 -0.623664 143 137 123
-0.613008 1.23825 -0.625696 142 136 122
-0.60769 1.24241 -0.627373 143 137 124
-0.602689 1.247348 -0.629419 143 137 123
-0.597841 1.25271 -0.631667 144 138 124
-0.59241 1.256732 -0.633301 145 138 124
-0.587145 1.261195 -0.635146 145 138 124
-0.583306 1.269254 -0.638663 143 137 123
-0.578376 1.274721 -0.640984 144 138 124
-0.574144 1.282055 -0.644176 144 138 124
-0.569291 1.287917 -0.646693 145 139 125
-0.564204 1.293265 -0.648977 144 138 124
-0.558725 1.297652 -0.650823 143 138 124
-0.55373 1.303415 -0.653311 143 138 124
-0.548801 1.309466 -0.655938 143 138 124
-0.543288 1.313999 -0.657869 143 138 124
-0.537762 1.318567 -0.659822 143 138 124
-0.532111 1.322853 -0.661651 143 138 124
-0.526649 1.327764 -0.663774 143 138 124
-0.521739 1.33442 -0.666707 144 138 125
-0.517695 1.343868 -0.670932 144 138 125
-0.512503 1.350018 -0.673642 144 139 125
-0.5072 1.355963 -0.676261 144 139 125
-0.50008 1.356236 -0.676271 145 139 126
-0.494587 1.361755 -0.678704 145 139 126
-0.489501 1.368759 -0.681826 145 139 127
-0.483573 1.373111 -0.683731 145 139 127
-0.478434 1.380281 -0.686939 145 139 127
-0.474169 1.390727 -0.691659 145 139 127
