ply
format ascii 1.0
comment ---
element vertex 1190
property float x
property float y
property float z
property uchar red
property uchar green
property uchar blue
element face 0
property list uchar uint vertex_indices
end_header
-0.65827 1.123565 -0.061335 158 152 140
-0.655411 1.129254 -0.062061 159 153 140
-0.652916 1.135797 -0.062852 159 153 139
-0.649823 1.14154 -0.063625 160 154 140
-0.644789 1.144089 -0.064254 160 154 140
-0.639786 1.146836 -0.064909 161 155 141
-0.636527 1.152852 -0.065753 160 154 140
-0.632385 1.157464 -0.06654 161 155 143
-0.627406 1.160699 -0.067268 162 156 144
-0.62417 1.167285 -0.068191 162 156 143
-0.619972 1.172253 -0.06904 162 156 143
-0.615828 1.177461 -0.069914 162 156 144
-0.611521 1.182489 -0.07079 163 157 144
-0.606571 1.186394 -0.071612 162 156 142
-0.601416 1.189983 -0.072425 162 156 142
-0.597363 1.195826 -0.073372 162 156 142
-0.594025 1.203225 -0.074416 163 157 143
-0.589853 1.209073 -0.075378 163 157 143
-0.586152 1.215994 -0.076409 163 157 144
-0.581466 1.220985 -0.077331 164 158 144
-0.576906 1.226309 -0.078276 164 158 144
-0.571962 1.23089 -0.079179 164 158 144
-0.567407 1.236359 -0.080137 164 158 144
-0.562466 1.241053 -0.08105 165 159 145
-0.557867 1.24655 -0.082012 164 158 144
-0.553675 1.253023 -0.083036 165 159 145
-0.548209 1.256688 -0.083885 165 159 146
-0.543104 1.261192 -0.084784 165 159 147
-0.538596 1.267122 -0.085774 166 160 146
-0.534088 1.273123 -0.086768 166 160 147
-0.528907 1.277578 -0.087661 166 160 148
-0.52469 1.284406 -0.088707 166 160 148
-0.519359 1.288579 -0.089578 166 160 148
-0.513662 1.291862 -0.090388 167 160 147
-0.508609 1.296771 -0.091302 168 160 147
-0.506228 1.308581 -0.092677 167 160 147
-0.501081 1.313428 -0.093586 168 162 148
-0.49534 1.31675 -0.094389 168 162 148
-0.490397 1.322209 -0.095335 168 162 148
-0.485172 1.326966 -0.09623 168 162 148
-0.480246 1.332593 -0.097183 169 162 149
-0.477102 1.343276 -0.098487 169 163 149
-0.470887 1.345469 -0.099198 170 163 149
-0.465358 1.349611 -0.100042 171 163 150
-0.460393 1.355439 -0.101003 171 163 150
-0.455382 1.361221 -0.101959 171 163 150
-0.450447 1.367322 -0.102936 172 164 151
-0.445853 1.374573 -0.103996 170 164 152
-0.440512 1.379641 -0.104896 171 164 152
-0.435977 1.38734 -0.105987 172 165 153
-0.43045 1.392015 -0.106857 172 164 153
-0.425007 1.397035 -0.10775 173 165 154
-0.420737 1.40604 -0.108937 173 165 152
-0.41569 1.412645 -0.109946 173 166 152
-0.410647 1.419408 -0.110967 174 166 155
-0.404862 1.423738 -0.111805 174 166 155
-0.399458 1.429498 -0.112749 174 166 155
-0.394437 1.436778 -0.113808 174 166 155
-0.389507 1.444583 -0.114907 175 167 156
-0.384088 1.450768 -0.115883 175 167 156
-0.378131 1.455051 -0.116713 174 166 155
-0.372429 1.460426 -0.117626 175 167 156
-0.367256 1.468043 -0.118712 175 167 156
-0.361762 1.474594 -0.119716 175 167 156
-0.356743 1.483303 -0.120889 176 168 156
-0.350747 1.488181 -0.121763 176 168 156
-0.344662 1.492812 -0.122617 175 167 154
-0.339175 1.500211 -0.12369 176 168 155
-0.333174 1.505559 -0.124601 175 167 154
-0.327166 1.511048 -0.125523 175 167 154
-0.321447 1.518086 -0.12657 174 166 153
-0.315831 1.525885 -0.127679 174 166 153
-0.309824 1.532069 -0.128659 174 166 153
-0.303545 1.537125 -0.129548 174 166 154
-0.297444 1.543294 -0.130528 174 166 153
-0.292578 1.556268 -0.132067 174 166 153
-0.286193 1.5616 -0.132982 174 166 155
-0.279679 1.566439 -0.133858 174 166 155
-0.273009 1.570597 -0.134677 173 165 154
-0.266504 1.575911 -0.135592 173 165 154
-0.260631 1.585317 -0.13685 172 164 153
-0.253969 1.590297 -0.13774 172 164 152
-0.249818 1.611711 -0.14001 172 164 151
-0.243047 1.617016 -0.140934 173 165 153
-0.236539 1.62442 -0.142037 172 164 153
-0.230005 1.632092 -0.143164 172 164 153
-0.223273 1.638798 -0.144211 173 163 153
-0.217056 1.649854 -0.145632 173 163 153
-0.212245 1.672757 -0.148074 172 162 152
-0.205773 1.683798 -0.149506 172 163 152
-0.199595 1.698178 -0.151231 171 163 152
-0.192559 1.706116 -0.152405 171 163 152
-0.185463 1.714132 -0.153588 171 163 152
-0.178234 1.72156 -0.154723 171 163 152
-0.172224 1.742002 -0.156999 170 162 151
-0.163921 1.740045 -0.15732 171 163 151
-0.156427 1.746895 -0.158413 171 163 152
-0.14966 1.763063 -0.160332 170 162 151
-0.142582 1.777195 -0.162077 171 163 152
-0.134998 1.78631 -0.163384 171 163 152
-0.127743 1.801275 -0.165216 171 163 152
-0.120013 1.811088 -0.166594 169 161 150
-0.11223 1.82152 -0.168031 170 162 151
-0.104037 1.826357 -0.16897 169 161 150
-0.094874 1.813296 -0.168295 169 161 149
-0.086278 1.809654 -0.168464 169 161 148
-0.079881 1.856971 -0.173258 169 161 148
-0.071795 1.871222 -0.175064 168 160 147
-0.063573 1.885343 -0.176866 169 161 149
-0.055375 1.904919 -0.179174 169 161 150
-0.046887 1.919891 -0.181068 167 159 148
-0.038154 1.929326 -0.182459 168 160 148
-0.02954 1.953069 -0.185177 167 159 148
-0.020459 1.951541 -0.185563 167 159 148
-0.011448 1.960792 -0.186949 166 158 147
-0.002351 1.967704 -0.188122 165 157 145
0.006824 1.977642 -0.18958 165 157 146
0.016085 1.986854 -0.190974 166 158 147
0.025407 1.994205 -0.192196 161 153 142
0.03479 2.001144 -0.193383 165 157 145
0.044237 2.008054 -0.194569 164 158 146
0.053808 2.017074 -0.195959 164 156 145
0.063515 2.027687 -0.197503 160 153 142
0.073257 2.036523 -0.198882 160 153 142
0.08283 2.039318 -0.199687 162 155 144
0.092689 2.047671 -0.201025 157 150 139
0.102227 2.048186 -0.201612 165 156 146
0.1113 2.040235 -0.20138 160 152 141
0.120951 2.043061 -0.202186 135 125 112
0.131442 2.058334 -0.2042 130 121 104
0.14217 2.074917 -0.206348 127 118 101
0.152234 2.08046 -0.207426 124 115 98
0.16231 2.085455 -0.208451 124 115 98
0.172412 2.090152 -0.209449 124 115 99
0.182554 2.094767 -0.210439 123 114 98
0.193153 2.10377 -0.211863 122 113 96
0.202699 2.101107 -0.212136 123 114 97
0.212145 2.097656 -0.212329 123 114 99
0.221665 2.095156 -0.212612 123 114 99
0.231337 2.094159 -0.213042 121 114 97
0.24055 2.089258 -0.21308 122 113 96
0.249575 2.083133 -0.21299 123 114 98
0.258832 2.07924 -0.21312 122 113 98
0.267911 2.074211 -0.213131 122 114 98
0.276928 2.069017 -0.213122 121 114 98
0.285985 2.064388 -0.213164 122 113 98
0.294942 2.059303 -0.213156 122 113 98
0.304104 2.055846 -0.213309 122 113 98
0.312945 2.050457 -0.21326 121 112 96
0.321795 2.04537 -0.213238 121 112 96
0.330152 2.037497 -0.212926 120 111 96
0.338456 2.029685 -0.212614 119 112 96
0.3464 2.020144 -0.212118 118 111 95
0.356302 2.022025 -0.212791 116 109 93
0.365163 2.018038 -0.212857 113 106 90
0.373226 2.009927 -0.212492 112 106 90
0.381086 2.001078 -0.212043 109 105 89
0.389252 1.994124 -0.211784 109 105 88
0.397796 1.989286 -0.211741 108 105 88
-0.666266 1.12523 -0.066712 159 153 140
-0.659297 1.123843 -0.067057 159 153 140
-0.657555 1.131463 -0.067919 158 152 139
-0.653949 1.136141 -0.068639 159 153 139
-0.649141 1.138933 -0.069273 160 154 140
-0.645609 1.144122 -0.07006 160 154 140
-0.641495 1.148473 -0.070818 160 154 140
-0.637776 1.153704 -0.071643 161 155 142
-0.633513 1.15813 -0.072438 162 156 142
-0.62888 1.162033 -0.073217 162 156 142
-0.623441 1.164574 -0.073928 162 156 143
-0.620994 1.17281 -0.074989 162 156 144
-0.616198 1.176809 -0.075809 162 156 144
-0.612301 1.182634 -0.076751 161 155 143
-0.607435 1.186721 -0.077595 162 156 142
-0.602503 1.190765 -0.078445 161 155 141
-0.599532 1.198779 -0.079548 162 156 142
-0.593336 1.20049 -0.080264 162 156 142
-0.589065 1.206115 -0.08123 162 156 142
-0.585276 1.212826 -0.082271 163 157 143
-0.58259 1.22195 -0.083472 164 158 144
-0.57763 1.226454 -0.08438 163 157 143
-0.57264 1.230945 -0.08529 164 158 144
-0.567403 1.234952 -0.086168 164 158 144
-0.562888 1.240564 -0.087154 164 158 144
-0.558114 1.245674 -0.088107 164 158 144
-0.555117 1.25482 -0.089331 164 158 145
-0.548952 1.256924 -0.090082 165 159 146
-0.543724 1.261154 -0.090975 166 159 147
-0.538516 1.265455 -0.091872 166 159 148
-0.533978 1.271364 -0.092877 166 160 148
-0.528619 1.275373 -0.09375 166 160 148
-0.524121 1.281487 -0.094768 166 160 148
-0.519141 1.286489 -0.095707 166 160 148
-0.514915 1.293416 -0.096781 167 161 149
-0.511781 1.3032 -0.098059 167 160 148
-0.507073 1.309126 -0.099062 168 160 148
-0.501205 1.312108 -0.09985 168 161 147
-0.495443 1.315361 -0.100654 168 162 148
-0.490224 1.320063 -0.101561 169 161 148
-0.486128 1.327852 -0.102693 170 161 149
-0.481575 1.334517 -0.103742 170 162 149
-0.475558 1.3372 -0.104493 170 162 149
-0.470831 1.343522 -0.105514 171 163 150
-0.465272 1.347554 -0.10636 170 162 149
-0.460426 1.353697 -0.107364 170 162 150
-0.45658 1.362908 -0.108601 171 163 152
-0.451062 1.367278 -0.109468 170 164 152
-0.44599 1.373064 -0.110442 170 164 152
-0.441441 1.380574 -0.111549 171 165 153
-0.437068 1.388796 -0.112711 171 165 153
-0.431564 1.39357 -0.113604 172 165 154
-0.425835 1.397687 -0.114444 172 165 154
-0.420969 1.404719 -0.115512 172 164 151
-0.415721 1.410625 -0.116491 174 166 152
-0.409805 1.414357 -0.117296 174 166 153
-0.40551 1.423804 -0.118556 174 166 153
-0.400306 1.430279 -0.119579 174 166 155
-0.395203 1.437277 -0.120645 174 166 155
-0.389599 1.442609 -0.121576 175 167 156
-0.383793 1.447305 -0.122454 174 166 155
-0.378074 1.452443 -0.123368 175 167 156
-0.372417 1.457945 -0.12431 175 167 156
-0.36759 1.466889 -0.125536 175 167 156
-0.362217 1.473907 -0.126605 176 168 157
-0.357001 1.481794 -0.127747 176 168 156
-0.351191 1.487431 -0.128702 175 167 154
-0.345175 1.49235 -0.129598 175 167 154
-0.339533 1.499061 -0.130644 175 167 154
-0.333681 1.505061 -0.13163 175 167 154
-0.327683 1.510592 -0.132578 175 167 154
-0.32228 1.519109 -0.13378 175 167 154
-0.316522 1.526252 -0.134866 175 167 154
-0.310434 1.532057 -0.13584 174 166 154
-0.304111 1.5369 -0.136732 174 166 154
-0.298055 1.543306 -0.137758 174 166 154
-0.292723 1.553809 -0.13914 174 166 154
-0.286897 1.562126 -0.140337 174 166 154
-0.280279 1.566416 -0.141184 174 166 154
-0.272989 1.567035 -0.141711 173 165 153
-0.266256 1.570923 -0.142522 173 165 153
-0.260616 1.581605 -0.143932 172 164 152
-0.254439 1.589519 -0.145102 172 164 151
-0.250444 1.611889 -0.147555 172 164 151
-0.243633 1.616952 -0.14848 173 165 152
-0.236953 1.623194 -0.149512 173 164 152
-0.231073 1.635461 -0.151084 172 164 152
-0.22471 1.645005 -0.152417 173 163 152
-0.218469 1.656101 -0.153894 173 163 151
-0.212847 1.672846 -0.155886 173 163 152
-0.206744 1.686916 -0.157643 172 162 152
-0.200078 1.697279 -0.159069 172 162 150
-0.192818 1.703219 -0.160096 171 163 150
-0.185576 1.709796 -0.161183 171 163 152
-0.17858 1.719296 -0.162541 171 163 152
-0.171397 1.727769 -0.163808 171 163 152
-0.164581 1.740939 -0.165512 171 163 152
-0.157679 1.754476 -0.167256 171 163 152
-0.151296 1.775595 -0.169712 172 164 153
-0.14349 1.781399 -0.17075 173 165 154
-0.136087 1.793214 -0.172352 173 165 154
-0.128434 1.803032 -0.173772 172 164 153
-0.120561 1.810862 -0.175009 173 165 154
-0.112844 1.822384 -0.176598 173 165 154
-0.104237 1.820093 -0.176884 171 163 152
-0.095675 1.818197 -0.177205 169 161 149
-0.085944 1.791232 -0.175136 169 161 148
-0.07946 1.834312 -0.179742 168 160 147
-0.07216 1.866515 -0.183328 168 160 147
-0.064631 1.900793 -0.18713 168 160 148
-0.056094 1.911107 -0.188642 168 160 148
-0.047475 1.921952 -0.190209 168 160 147
-0.038446 1.916716 -0.190223 167 159 148
-0.029897 1.940905 -0.193092 167 159 146
-0.02099 1.951718 -0.19467 167 159 148
-0.011981 1.962314 -0.196231 166 158 147
-0.002873 1.972221 -0.19773 165 157 146
0.006333 1.983614 -0.199379 166 158 147
0.015585 1.988136 -0.200356 166 158 147
0.024906 1.994647 -0.201531 151 143 132
0.034259 1.999512 -0.202545 143 135 124
0.043698 2.006192 -0.203741 23 18 8
0.05343 2.021243 -0.205773 21 18 8
0.063002 2.026906 -0.206875 20 15 9
0.072656 2.033354 -0.208057 22 17 11
0.082443 2.0415 -0.209411 24 18 11
0.092151 2.046276 -0.21043 144 137 127
0.101738 2.047756 -0.211117 164 156 146
0.110694 2.037578 -0.210624 162 153 143
0.120478 2.042714 -0.211678 136 127 115
0.131293 2.062958 -0.21427 130 121 104
0.141361 2.069701 -0.215495 126 118 100
0.151588 2.077694 -0.21685 124 116 98
0.161633 2.082398 -0.21787 123 114 97
0.171614 2.085758 -0.218753 123 114 97
0.182118 2.094646 -0.220205 123 114 98
0.192365 2.099818 -0.221277 122 113 96
0.202211 2.100343 -0.221869 123 114 97
0.21166 2.096897 -0.222048 122 113 98
0.221276 2.095257 -0.222411 122 113 97
0.230794 2.092828 -0.222689 122 115 97
0.240245 2.089963 -0.222919 122 114 97
0.249391 2.084756 -0.2229 122 113 98
0.258448 2.079164 -0.222835 122 113 98
0.267708 2.07547 -0.222967 122 114 98
0.27693 2.071697 -0.223086 122 114 98
0.285921 2.066463 -0.223046 122 113 98
0.295027 2.062297 -0.223115 121 112 97
0.303811 2.056179 -0.222973 121 112 97
0.31279 2.051628 -0.222992 121 114 98
0.321108 2.043126 -0.222585 121 113 97
0.329527 2.035662 -0.222282 120 113 97
0.338311 2.030707 -0.222243 119 112 96
0.34712 2.026098 -0.222237 117 110 94
0.355761 2.02071 -0.222142 115 108 92
0.364319 2.015076 -0.222015 112 105 89
0.372308 2.006611 -0.221577 106 100 87
0.380329 1.998654 -0.221187 17 15 6
0.388722 1.992885 -0.221029 15 14 9
0.397383 1.988627 -0.22103 13 12 8
-0.662584 1.117599 -0.07198 158 152 139
-0.661286 1.125736 -0.072889 158 152 139
-0.659371 1.133103 -0.073774 159 153 139
-0.6547 1.135994 -0.074408 160 154 140
-0.649493 1.138117 -0.075012 161 155 141
-0.646257 1.143842 -0.075855 160 154 140
-0.64162 1.14729 -0.076574 160 154 140
-0.637459 1.15174 -0.077372 160 154 140
-0.634476 1.158484 -0.07833 161 155 141
-0.629906 1.162528 -0.079131 161 155 141
-0.625733 1.167441 -0.080001 163 157 144
-0.620891 1.171246 -0.080811 161 155 143
-0.617804 1.178477 -0.081855 162 156 144
-0.613162 1.182914 -0.082726 162 156 144
-0.608263 1.186956 -0.08358 162 156 143
-0.606003 1.19625 -0.084792 162 156 142
-0.598742 1.195844 -0.085362 162 156 142
-0.593843 1.200135 -0.086251 162 156 142
-0.589528 1.205679 -0.087229 162 156 142
-0.585505 1.211913 -0.08826 163 157 143
-0.583501 1.222447 -0.089594 163 157 143
-0.578497 1.226874 -0.090509 164 158 144
-0.572836 1.229951 -0.091331 164 158 144
-0.567965 1.234743 -0.092274 164 158 144
-0.562854 1.239058 -0.093184 163 157 143
-0.558516 1.245116 -0.094219 164 158 144
-0.553884 1.250594 -0.095213 164 158 144
-0.55018 1.258237 -0.096365 165 159 146
-0.544622 1.26173 -0.097214 165 159 146
-0.539337 1.265864 -0.098109 165 159 146
-0.533936 1.269743 -0.098983 165 159 146
-0.529183 1.275185 -0.099972 165 159 147
-0.52461 1.281118 -0.100996 167 161 149
-0.52045 1.288131 -0.102101 166 160 148
-0.515579 1.293472 -0.103079 166 160 148
-0.512378 1.303084 -0.104382 167 159 148
-0.504814 1.301699 -0.104843 168 160 148
-0.501282 1.310645 -0.106094 168 160 147
-0.495517 1.313872 -0.106902 168 161 148
-0.491139 1.320801 -0.107996 169 161 148
-0.486406 1.326873 -0.109022 170 162 149
-0.481753 1.333251 -0.110072 170 162 150
-0.476602 1.338332 -0.111018 171 163 151
-0.469481 1.337896 -0.111522 170 162 151
-0.465167 1.345422 -0.112658 171 163 151
-0.461267 1.354292 -0.113902 171 164 152
-0.456475 1.360707 -0.11495 170 163 152
-0.451616 1.367028 -0.115988 170 164 152
-0.446525 1.372752 -0.116978 171 165 153
-0.441103 1.377547 -0.11789 171 165 153
-0.436069 1.383631 -0.118907 172 166 154
-0.432039 1.39305 -0.1202 172 165 153
-0.426388 1.397413 -0.121073 172 165 153
-0.420692 1.401695 -0.121938 172 165 152
-0.415154 1.406571 -0.122852 173 165 152
-0.41042 1.414294 -0.124004 173 165 152
-0.405407 1.421233 -0.12509 174 166 153
-0.400454 1.428552 -0.12621 174 166 155
-0.395266 1.435214 -0.127274 175 167 156
-0.389527 1.440016 -0.128178 174 166 155
-0.384167 1.446342 -0.129213 175 167 155
-0.378342 1.451059 -0.13011 175 167 155
-0.37288 1.457298 -0.131137 175 167 154
-0.368088 1.466369 -0.132412 175 167 155
-0.362643 1.473088 -0.133483 175 167 156
-0.357209 1.480059 -0.134577 176 168 156
-0.351687 1.486881 -0.135659 175 167 155
-0.345808 1.492383 -0.136625 175 167 155
-0.339911 1.497982 -0.1376 175 167 155
-0.333833 1.502949 -0.138519 175 167 154
-0.328152 1.509898 -0.139615 175 167 154
-0.322824 1.518753 -0.140883 175 167 154
-0.317057 1.525855 -0.141996 175 167 154
-0.310976 1.53169 -0.142997 175 167 154
-0.304906 1.537808 -0.144023 174 166 154
-0.298837 1.544177 -0.145074 174 166 154
-0.292725 1.550588 -0.14613 174 166 154
-0.286988 1.559306 -0.147398 174 166 154
-0.28034 1.563369 -0.148241 174 166 153
-0.273017 1.563747 -0.148745 173 165 153
-0.266521 1.568956 -0.149693 173 165 152
-0.261132 1.581099 -0.151286 173 165 152
-0.256662 1.599627 -0.153478 173 165 152
-0.252943 1.624045 -0.156229 173 165 152
-0.247942 1.641481 -0.158339 173 165 152
-0.241654 1.651208 -0.159732 173 165 153
-0.234973 1.658769 -0.160925 172 164 151
-0.227299 1.659561 -0.16148 172 164 152
-0.219511 1.6595 -0.161953 173 164 153
-0.213227 1.671175 -0.163541 173 163 153
-0.206716 1.681864 -0.165039 173 163 153
-0.199982 1.691472 -0.166439 172 162 150
-0.193483 1.703903 -0.168114 171 163 150
-0.185939 1.707754 -0.168968 170 162 151
-0.179416 1.72174 -0.170801 171 163 152
-0.172096 1.728976 -0.171988 173 165 154
-0.165744 1.747121 -0.174236 175 167 156
-0.158064 1.75235 -0.175236 176 168 157
-0.151465 1.770799 -0.177528 175 167 156
-0.143929 1.779733 -0.178897 173 165 154
-0.136659 1.79323 -0.180719 172 164 153
-0.128847 1.800845 -0.181967 170 163 152
-0.121532 1.816979 -0.18406 170 163 151
-0.113409 1.822428 -0.185102 169 162 150
-0.105034 1.824327 -0.185793 167 159 148
-0.096318 1.820017 -0.185865 168 160 149
-0.086717 1.796242 -0.183988 169 161 148
-0.079513 1.822988 -0.18716 169 161 148
-0.072755 1.86782 -0.192163 168 160 147
-0.064877 1.891839 -0.195093 168 160 147
-0.056412 1.903292 -0.196765 168 160 147
-0.047669 1.907645 -0.197723 167 159 146
-0.03931 1.933661 -0.200883 167 159 147
-0.030526 1.94739 -0.202805 167 159 147
-0.021543 1.954073 -0.204013 167 159 146
-0.012497 1.960673 -0.205216 167 159 147
-0.003394 1.971878 -0.206894 166 158 147
0.005803 1.980328 -0.208293 166 158 147
0.015095 1.990685 -0.209893 165 157 146
0.024388 1.993777 -0.210746 150 142 130
0.033759 1.999609 -0.211883 140 132 121
0.043326 2.011728 -0.213677 50 42 32
0.052889 2.019509 -0.215023 109 102 92
0.062468 2.025467 -0.216182 141 134 125
0.072159 2.032966 -0.217505 160 153 144
0.081855 2.038839 -0.21866 143 136 126
0.091617 2.044925 -0.219839 142 134 124
0.101143 2.045206 -0.220407 164 155 146
0.110147 2.035962 -0.219966 163 155 144
0.120322 2.047644 -0.221739 137 128 114
0.131144 2.067613 -0.2244 130 121 105
0.141035 2.071416 -0.225345 126 118 100
0.151072 2.076667 -0.226445 124 115 98
0.161048 2.080478 -0.227393 123 114 97
0.171206 2.085999 -0.228525 122 113 96
0.181509 2.092544 -0.229769 122 113 97
0.191758 2.097783 -0.230874 122 113 96
0.201681 2.099136 -0.23156 122 113 96
0.211396 2.098276 -0.232004 123 114 97
0.220863 2.095125 -0.232197 122 114 98
0.230278 2.091719 -0.23236 121 113 96
0.239624 2.087942 -0.232478 122 114 96
0.248803 2.083025 -0.232468 122 114 98
0.258069 2.079104 -0.232564 122 113 98
0.267326 2.075339 -0.232672 122 114 98
0.276479 2.071008 -0.232715 122 113 98
0.285564 2.066423 -0.232725 122 113 98
0.294556 2.061433 -0.232686 122 113 98
0.303645 2.057339 -0.232743 120 113 97
0.312186 2.04987 -0.23242 119 112 96
0.320992 2.044453 -0.23232 120 112 97
0.329052 2.034711 -0.231731 120 113 97
0.337749 2.029235 -0.231614 118 111 95
0.346524 2.024435 -0.231568 116 109 93
0.355149 2.01897 -0.231443 114 107 91
0.363438 2.011875 -0.231128 112 105 89
0.371681 2.004817 -0.230813 109 103 89
0.380102 1.998958 -0.230627 19 18 10
0.388624 1.993805 -0.230517 94 93 79
0.397336 1.989756 -0.230527 35 33 24
-0.667389 1.124144 -0.078101 158 152 138
-0.662118 1.125673 -0.078621 159 153 139
-0.659614 1.132059 -0.079478 158 152 138
-0.65548 1.135886 -0.080186 158 152 138
-0.650376 1.138216 -0.080811 159 153 139
-0.645511 1.141112 -0.08149 159 153 139
-0.641856 1.146294 -0.082339 160 154 140
-0.637293 1.150037 -0.083105 161 155 141
-0.63328 1.154921 -0.083964 161 155 141
-0.630828 1.162818 -0.085043 161 155 143
-0.625752 1.166086 -0.085817 161 155 143
-0.620826 1.169737 -0.086627 162 156 144
-0.617505 1.176527 -0.087667 162 156 144
-0.613646 1.182452 -0.088658 162 156 144
-0.608523 1.186075 -0.089493 162 156 144
-0.602935 1.188864 -0.090274 162 156 142
-0.599109 1.195184 -0.091316 162 156 142
-0.594244 1.199548 -0.092221 162 156 142
-0.589879 1.204992 -0.09321 162 156 142
-0.587259 1.214105 -0.094474 162 156 142
-0.582655 1.219272 -0.095452 163 157 143
-0.577734 1.223845 -0.096388 163 157 143
-0.573254 1.229407 -0.0974 163 157 143
-0.567808 1.23296 -0.098262 164 158 144
-0.562598 1.237044 -0.099164 163 157 143
-0.558054 1.242627 -0.100181 164 158 144
-0.554236 1.249899 -0.101329 164 158 144
-0.549818 1.255915 -0.102381 163 157 143
-0.54487 1.260787 -0.103345 165 159 145
-0.539705 1.265191 -0.10427 166 158 145
-0.534317 1.269099 -0.105155 166 159 146
-0.52927 1.27383 -0.106103 165 159 147
-0.526326 1.28369 -0.10746 166 160 148
-0.521505 1.28912 -0.108463 166 160 147
-0.516584 1.294353 -0.109449 166 159 146
-0.512022 1.300539 -0.110512 167 159 147
-0.507492 1.306887 -0.111586 168 160 148
-0.50156 1.30968 -0.112369 169 161 148
-0.495884 1.313132 -0.113202 169 161 148
-0.491248 1.319362 -0.114262 169 161 148
-0.48661 1.325672 -0.115329 169 161 148
-0.482903 1.334629 -0.116616 169 161 149
-0.47676 1.33697 -0.117348 171 163 152
-0.470744 1.339647 -0.118104 170 162 151
-0.465919 1.345731 -0.119147 171 163 151
-0.461666 1.353577 -0.120339 170 162 150
-0.456649 1.359313 -0.121351 170 163 152
-0.45169 1.365314 -0.122385 171 163 152
-0.446834 1.371728 -0.123454 172 164 152
-0.441054 1.375399 -0.124284 171 164 151
-0.435646 1.380273 -0.125217 171 165 153
-0.4314 1.388942 -0.126481 171 165 153
-0.426165 1.394597 -0.127482 172 164 152
-0.420441 1.398743 -0.128348 173 165 153
-0.415353 1.405088 -0.129408 174 166 153
-0.41098 1.414017 -0.130698 174 166 154
-0.405801 1.420375 -0.13176 174 166 153
-0.400847 1.42768 -0.132907 175 167 154
-0.395547 1.433923 -0.133959 175 167 154
-0.389894 1.439021 -0.134908 174 166 153
-0.384819 1.446398 -0.136063 175 167 154
-0.379318 1.452357 -0.13709 175 167 154
-0.373796 1.458392 -0.138124 175 167 154
-0.368358 1.464926 -0.139205 175 167 155
-0.36349 1.473954 -0.140516 175 167 155
-0.357838 1.480046 -0.141557 175 167 155
-0.351698 1.484274 -0.142426 175 167 155
-0.346579 1.49299 -0.143713 175 167 155
-0.34036 1.497201 -0.144581 175 167 155
-0.334217 1.501871 -0.145492 175 167 154
-0.328616 1.509165 -0.146649 175 167 154
-0.323373 1.518403 -0.147992 175 167 154
-0.317436 1.524688 -0.149058 175 167 154
-0.311505 1.531244 -0.15015 174 166 154
-0.305538 1.537876 -0.151252 174 166 154
-0.299442 1.544116 -0.152317 174 166 154
-0.29314 1.549532 -0.153305 174 166 154
-0.286835 1.555165 -0.154314 174 166 154
-0.280289 1.5597 -0.155218 174 166 153
-0.273193 1.561298 -0.155838 174 165 153
-0.267318 1.570089 -0.157156 173 165 153
-0.26281 1.587577 -0.159325 173 165 152
-0.258321 1.606165 -0.16161 173 165 152
-0.25247 1.617127 -0.163156 173 165 152
-0.248563 1.641549 -0.166031 173 165 153
-0.240448 1.638853 -0.166242 173 165 153
-0.232799 1.639211 -0.166752 172 164 151
-0.225783 1.644151 -0.167715 172 164 153
-0.219814 1.657288 -0.169495 172 164 153
-0.21453 1.676714 -0.17191 172 164 153
-0.206992 1.679288 -0.172646 172 164 153
-0.20201 1.703588 -0.175564 171 163 151
-0.193836 1.701815 -0.175869 172 164 151
-0.186091 1.703783 -0.176549 172 164 153
-0.181118 1.732435 -0.179931 172 164 153
-0.173289 1.73511 -0.18069 163 155 144
-0.166159 1.745361 -0.182221 165 157 146
-0.158458 1.750323 -0.183216 170 163 152
-0.151552 1.765071 -0.185214 169 162 151
-0.143743 1.770319 -0.186244 168 161 150
-0.136792 1.787454 -0.1885 166 159 147
-0.129609 1.803538 -0.190656 164 156 146
-0.121978 1.815144 -0.192356 133 126 116
-0.11419 1.825928 -0.193976 38 33 23
-0.105594 1.824361 -0.194316 153 145 135
-0.096859 1.819833 -0.194344 169 161 149
-0.087109 1.793237 -0.19206 170 160 149
-0.079923 1.819998 -0.195358 170 160 149
-0.073905 1.883486 -0.202533 170 160 150
-0.065515 1.89455 -0.204213 169 160 149
-0.0568 1.898006 -0.205094 168 159 147
-0.049023 1.940913 -0.210158 168 159 147
-0.04018 1.95032 -0.211684 167 159 148
-0.031065 1.947622 -0.211924 167 159 147
-0.02206 1.95282 -0.213005 167 159 146
-0.01301 1.958566 -0.214147 166 158 146
-0.003905 1.963037 -0.215154 166 158 147
0.005289 1.981268 -0.217644 167 159 147
0.014559 1.987838 -0.218884 166 158 147
0.02388 1.99371 -0.220052 149 141 130
0.033222 1.997605 -0.221007 140 132 120
0.042647 2.003589 -0.22219 95 87 77
0.052214 2.012746 -0.223722 94 87 77
0.061961 2.024852 -0.225579 156 148 139
0.071586 2.03047 -0.226732 156 148 138
0.081307 2.037115 -0.227999 30 22 15
0.091147 2.044963 -0.229401 112 103 95
0.100663 2.044909 -0.229934 164 156 145
0.110032 2.042152 -0.230168 164 156 145
0.119375 2.039354 -0.230394 136 126 113
0.130388 2.062853 -0.233539 129 120 103
0.140382 2.068387 -0.234695 126 117 100
0.150275 2.071812 -0.235617 123 114 97
0.160494 2.078929 -0.236953 122 113 96
0.170579 2.083601 -0.238017 122 113 96
0.180944 2.090918 -0.239379 122 113 96
0.191188 2.096132 -0.240507 122 113 96
0.201335 2.099802 -0.241462 122 113 96
0.211058 2.098926 -0.241903 122 113 99
0.220557 2.09598 -0.242107 122 113 98
0.229995 2.092679 -0.242268 123 114 97
0.239274 2.088225 -0.242294 121 112 95
0.248414 2.082916 -0.242218 121 113 96
0.257683 2.078971 -0.242295 122 113 98
0.266825 2.074281 -0.242282 123 114 97
0.275795 2.068581 -0.242149 122 113 98
0.284879 2.064025 -0.242144 121 112 97
0.294222 2.061489 -0.242367 122 113 98
0.303068 2.055723 -0.242214 121 113 97
0.311992 2.05075 -0.242148 119 112 96
0.320119 2.040987 -0.241521 119 112 96
0.328791 2.035052 -0.241333 119 112 96
0.337214 2.027899 -0.240998 118 111 95
0.345994 2.023128 -0.240936 116 109 93
0.354833 2.018871 -0.24093 114 107 91
0.363032 2.011252 -0.240525 111 104 88
0.371443 2.005075 -0.240284 107 101 87
0.380098 2.000394 -0.240215 21 18 11
0.388806 1.996127 -0.24019 84 84 73
0.397248 1.990657 -0.240018 51 47 36
-0.662452 1.114434 -0.083157 158 152 138
-0.662397 1.124672 -0.084295 159 153 139
-0.659274 1.130018 -0.085109 158 152 138
-0.655896 1.135147 -0.085926 158 152 138
-0.650353 1.136738 -0.086507 159 153 139
-0.646179 1.14085 -0.087284 160 154 140
-0.643075 1.147024 -0.088226 160 154 140
-0.638598 1.150953 -0.08902 161 154 140
-0.633541 1.153983 -0.089761 160 154 141
-0.629825 1.159578 -0.090703 161 155 142
-0.625775 1.164725 -0.091624 161 155 143
-0.621472 1.169544 -0.092532 162 156 144
-0.618119 1.176285 -0.093595 162 156 144
-0.614042 1.181807 -0.094576 162 156 144
-0.608633 1.184886 -0.095378 161 155 143
-0.603468 1.188502 -0.096227 162 156 142
-0.598702 1.192972 -0.097147 161 155 141
-0.594873 1.199394 -0.098224 162 156 142
-0.589675 1.203163 -0.099098 161 155 141
-0.587634 1.213444 -0.100489 162 156 142
-0.58269 1.217909 -0.101426 162 156 142
-0.578172 1.22332 -0.102441 162 156 142
-0.573158 1.227747 -0.103379 163 157 143
-0.568061 1.23204 -0.104307 163 157 143
-0.562788 1.235983 -0.105207 164 158 144
-0.557971 1.240955 -0.10619 164 158 144
-0.554388 1.248732 -0.107404 164 158 144
-0.549537 1.253759 -0.108393 164 158 144
-0.544864 1.259236 -0.109419 165 158 144
-0.540126 1.264619 -0.110437 166 158 145
-0.535101 1.269377 -0.111402 166 158 145
-0.53023 1.274538 -0.112399 166 158 145
-0.52631 1.282046 -0.113595 166 157 145
-0.521415 1.287273 -0.114597 167 158 146
-0.517049 1.293862 -0.115715 167 159 147
-0.512541 1.30018 -0.116809 167 159 147
-0.507369 1.304884 -0.117763 168 160 147
-0.502208 1.309651 -0.118721 168 160 147
-0.496474 1.312957 -0.119548 168 160 147
-0.49221 1.320175 -0.120717 169 161 148
-0.486883 1.324634 -0.121643 170 162 149
-0.483926 1.335628 -0.123146 169 161 148
-0.477407 1.336947 -0.12379 170 162 150
-0.471238 1.339196 -0.124512 170 162 151
-0.466486 1.345484 -0.125595 170 163 151
-0.460685 1.348822 -0.12641 171 163 151
-0.456023 1.355535 -0.127529 171 163 150
-0.452085 1.364542 -0.128857 171 163 152
-0.447098 1.370549 -0.129912 171 163 152
-0.441678 1.375318 -0.130853 172 164 151
-0.435987 1.379307 -0.131721 173 165 154
-0.431673 1.38774 -0.132998 172 164 153
-0.426226 1.392689 -0.133953 173 165 154
-0.420538 1.396926 -0.134841 173 165 154
-0.415622 1.403821 -0.135976 173 165 154
-0.411934 1.415067 -0.137521 173 165 154
-0.40688 1.421882 -0.138651 174 166 153
-0.40167 1.428306 -0.139744 174 166 153
-0.396221 1.434028 -0.140772 175 167 154
-0.391019 1.440786 -0.141898 175 167 154
-0.385053 1.444874 -0.142769 175 167 154
-0.380124 1.452982 -0.144026 175 167 154
-0.374695 1.459399 -0.145121 175 167 154
-0.369199 1.465724 -0.146208 175 167 154
-0.364117 1.473903 -0.147475 175 167 154
-0.358231 1.479043 -0.148449 175 167 154
-0.352236 1.483868 -0.149392 175 167 154
-0.346677 1.490695 -0.150531 175 167 154
-0.340869 1.496662 -0.151587 175 167 154
-0.334692 1.501177 -0.1525 175 167 154
-0.329273 1.509296 -0.15377 175 167 154
-0.323541 1.516253 -0.154927 175 167 154
-0.317841 1.523632 -0.156127 174 166 154
-0.311958 1.530403 -0.157269 174 166 154
-0.306063 1.537387 -0.158434 174 166 154
-0.300085 1.544236 -0.159587 174 166 154
-0.293814 1.549831 -0.160615 174 166 154
-0.287511 1.555493 -0.161651 174 166 154
-0.280727 1.558737 -0.162443 174 166 153
-0.274076 1.562863 -0.163325 174 166 153
-0.267632 1.568382 -0.164349 173 165 152
-0.264053 1.591394 -0.167163 173 165 152
-0.258657 1.604465 -0.168969 174 166 153
-0.252078 1.610742 -0.170082 173 165 154
-0.245711 1.61875 -0.171376 173 165 154
-0.239253 1.626616 -0.172657 173 165 152
-0.23392 1.64285 -0.17481 173 165 152
-0.226725 1.646641 -0.175676 172 164 152
-0.220187 1.655601 -0.177082 172 164 152
-0.214721 1.673526 -0.179429 172 164 153
-0.208522 1.686853 -0.181302 172 164 153
-0.201728 1.696189 -0.182762 171 163 151
-0.194096 1.698914 -0.183529 171 163 151
-0.186512 1.702274 -0.184363 172 164 152
-0.181285 1.728395 -0.187611 172 164 151
-0.17421 1.738462 -0.189165 157 149 138
-0.166624 1.744129 -0.190255 153 145 133
-0.159054 1.750505 -0.191423 34 27 19
-0.152042 1.764051 -0.193362 28 21 14
-0.144566 1.773397 -0.194855 25 19 13
-0.137197 1.785259 -0.196624 25 20 12
-0.130223 1.804137 -0.199156 25 20 13
-0.122788 1.81874 -0.201235 25 19 12
-0.114142 1.816101 -0.201449 34 27 20
-0.107259 1.843536 -0.204933 63 56 48
-0.098057 1.832022 -0.204183 169 160 150
-0.087838 1.797199 -0.200877 170 160 150
-0.080502 1.820922 -0.203968 170 160 150
-0.074193 1.876719 -0.210597 169 159 149
-0.066043 1.893971 -0.213009 169 160 150
-0.056877 1.882265 -0.212231 169 159 149
-0.049487 1.937534 -0.218861 169 159 149
-0.040691 1.948735 -0.220629 167 159 147
-0.031621 1.948929 -0.221178 167 159 148
-0.022566 1.950582 -0.221888 167 159 148
-0.013525 1.956848 -0.223115 165 157 146
-0.004422 1.961035 -0.224111 167 157 145
0.004721 1.965759 -0.225168 167 158 145
0.014038 1.986847 -0.228071 167 157 146
0.023313 1.988939 -0.228839 152 142 131
0.032719 1.997529 -0.230343 142 133 121
0.04215 2.003541 -0.231558 28 20 11
0.051711 2.01231 -0.233089 109 102 92
0.061475 2.024901 -0.235059 158 149 140
0.071096 2.030245 -0.236207 159 150 141
0.080806 2.036499 -0.237461 102 93 85
0.090752 2.04664 -0.239164 120 111 102
0.100356 2.048047 -0.239867 164 156 145
0.109496 2.040706 -0.23956 163 155 144
0.119051 2.041474 -0.240186 136 128 114
0.129704 2.059179 -0.242773 129 120 104
0.139978 2.068947 -0.244446 126 117 100
0.150115 2.075565 -0.245757 123 114 97
0.160182 2.080456 -0.24687 122 113 96
0.170268 2.084982 -0.24794 121 112 95
0.180546 2.091172 -0.249207 120 111 94
0.190931 2.097832 -0.250531 122 113 96
0.200871 2.099233 -0.251239 122 113 96
0.210689 2.099251 -0.251783 122 113 97
0.220103 2.095419 -0.25187 122 113 98
0.229641 2.092986 -0.25212 122 113 99
0.23897 2.08889 -0.25217 123 114 99
0.24816 2.083902 -0.25211 121 113 96
0.257369 2.079389 -0.252103 122 113 96
0.266284 2.072882 -0.251854 122 113 96
0.275481 2.06887 -0.251899 122 113 97
0.284733 2.065455 -0.252011 122 113 98
0.293618 2.059657 -0.251834 121 112 97
0.302749 2.055819 -0.251889 120 113 97
0.311142 2.047346 -0.25138 120 113 97
0.319768 2.040782 -0.251096 119 112 96
0.328557 2.035531 -0.250967 119 112 96
0.337358 2.030575 -0.250868 118 111 93
0.346148 2.025753 -0.250782 117 110 93
0.354621 2.019335 -0.250497 114 107 90
0.362817 2.011653 -0.250053 112 105 89
0.371211 2.005338 -0.24977 112 105 89
0.380007 2.001358 -0.249769 20 16 7
0.38866 1.996758 -0.249687 16 16 6
0.39695 1.99049 -0.249396 77 74 62
-0.673385 1.131151 -0.090115 158 152 137
-0.661065 1.120961 -0.089763 158 152 138
-0.659256 1.128522 -0.090769 158 152 138
-0.654197 1.130781 -0.091389 159 153 139
-0.651005 1.136419 -0.092284 159 153 139
-0.646872 1.140622 -0.093084 160 154 140
-0.644038 1.147289 -0.094091 159 153 139
-0.640141 1.152277 -0.094983 160 154 140
-0.635352 1.155825 -0.095774 160 154 140
-0.630056 1.158581 -0.096514 161 155 141
-0.625474 1.162752 -0.097376 160 154 141
-0.623633 1.172153 -0.098666 161 155 142
-0.619076 1.17667 -0.099577 161 155 143
-0.614046 1.180395 -0.100431 162 156 144
-0.611962 1.189884 -0.101762 161 155 141
-0.604703 1.18949 -0.102293 161 155 141
-0.601325 1.196724 -0.103454 161 155 141
-0.59522 1.198656 -0.104182 162 156 142
-0.59119 1.20479 -0.105262 162 156 142
-0.587533 1.211789 -0.106419 162 156 142
-0.582883 1.216851 -0.107418 162 156 142
-0.578072 1.221643 -0.108396 163 157 143
-0.573388 1.226759 -0.109403 163 157 143
-0.568418 1.231319 -0.110364 164 158 144
-0.563379 1.235769 -0.111316 164 158 144
-0.558839 1.241359 -0.112367 164 158 144
-0.554756 1.248027 -0.113512 164 158 144
-0.549926 1.253095 -0.114519 165 158 145
-0.54509 1.258197 -0.115528 166 158 145
-0.542435 1.268403 -0.116989 166 158 145
-0.536246 1.27048 -0.11773 165 158 145
-0.531153 1.27513 -0.118697 165 159 147
-0.526394 1.28062 -0.119739 166 158 147
-0.521272 1.285274 -0.120705 167 159 148
-0.516171 1.290015 -0.121676 167 159 147
-0.513062 1.299801 -0.123106 167 160 148
-0.507404 1.303263 -0.12396 168 161 148
-0.50175 1.306738 -0.124812 168 161 148
-0.498146 1.315592 -0.126158 169 161 148
-0.492266 1.318549 -0.126959 169 162 148
-0.486882 1.322836 -0.127881 169 162 149
-0.483526 1.332708 -0.129323 170 162 150
-0.477681 1.335861 -0.130137 170 162 150
-0.471655 1.338506 -0.130899 170 162 151
-0.465848 1.341767 -0.131717 170 163 151
-0.461352 1.348845 -0.132896 171 163 151
-0.456868 1.356085 -0.13409 171 163 150
-0.452497 1.363802 -0.135331 171 163 150
-0.449555 1.376019 -0.137005 171 163 150
-0.445618 1.385464 -0.138416 172 164 151
-0.445516 1.407166 -0.141018 173 165 152
-0.440624 1.414208 -0.142204 173 165 154
-0.435005 1.419041 -0.143175 173 165 153
-0.431106 1.429622 -0.144708 173 165 153
-0.424464 1.431283 -0.145367 173 165 154
-0.418311 1.434588 -0.146185 173 165 154
-0.408767 1.426163 -0.145838 174 166 154
-0.402511 1.428975 -0.146599 174 166 153
-0.396595 1.433033 -0.147483 174 166 153
-0.390804 1.437622 -0.148419 175 167 154
-0.385934 1.445742 -0.149708 174 166 153
-0.380504 1.45197 -0.15081 175 167 154
-0.375114 1.458519 -0.151944 176 168 155
-0.369999 1.466339 -0.153208 175 167 154
-0.364473 1.472746 -0.15433 175 167 154
-0.358413 1.477156 -0.155249 175 167 154
-0.352795 1.483528 -0.156368 175 167 154
-0.34715 1.489988 -0.157498 175 167 154
-0.341192 1.495294 -0.15851 175 167 154
-0.335581 1.502315 -0.1597 175 167 154
-0.329654 1.508147 -0.160768 174 166 154
-0.323832 1.514672 -0.161909 174 166 154
-0.317869 1.520765 -0.163007 174 166 154
-0.312203 1.52854 -0.164282 174 166 154
-0.306519 1.536538 -0.165582 174 166 154
-0.300569 1.543521 -0.166778 174 166 154
-0.294597 1.55068 -0.167995 174 166 154
-0.288226 1.556011 -0.16902 174 166 154
-0.281546 1.559859 -0.16989 174 166 153
-0.274522 1.561921 -0.170569 174 166 153
-0.267591 1.564588 -0.171312 173 165 152
-0.264399 1.589792 -0.174466 173 165 152
-0.259908 1.608406 -0.176926 173 165 152
-0.252929 1.612272 -0.177809 173 165 153
-0.2458 1.615347 -0.178606 173 165 154
-0.239403 1.623533 -0.179957 173 165 152
-0.234351 1.641629 -0.182385 173 165 152
-0.227744 1.649663 -0.183729 172 164 151
-0.219964 1.649435 -0.184174 172 164 151
-0.215733 1.676728 -0.187626 172 164 151
-0.209106 1.686728 -0.189197 172 164 152
-0.201937 1.692934 -0.190356 171 163 151
-0.194522 1.697463 -0.191332 172 164 151
-0.188429 1.714378 -0.193678 172 164 151
-0.181543 1.725227 -0.195359 171 163 150
-0.174012 1.730624 -0.196441 154 146 133
-0.167011 1.74206 -0.198197 150 142 129
-0.160083 1.755437 -0.200174 45 37 28
-0.152209 1.759269 -0.20109 157 150 140
-0.145165 1.773687 -0.203195 73 65 56
-0.137696 1.784287 -0.204877 144 137 126
-0.129704 1.788987 -0.205899 168 161 150
-0.123253 1.817155 -0.209573 167 161 150
-0.115358 1.826489 -0.21113 151 142 132
-0.107088 1.830823 -0.212123 120 113 104
-0.098264 1.825475 -0.212016 168 160 151
-0.088402 1.797705 -0.209348 169 161 150
-0.081859 1.839526 -0.21462 169 160 149
-0.074781 1.877673 -0.219494 168 159 149
-0.066373 1.887653 -0.221151 168 160 149
-0.057459 1.883721 -0.221211 168 159 149
-0.049728 1.92534 -0.226527 167 159 148
-0.041226 1.948263 -0.229701 167 159 148
-0.032228 1.953331 -0.230815 167 159 148
-0.023183 1.958358 -0.231927 167 159 148
-0.014073 1.960432 -0.232697 165 157 144
-0.004945 1.96304 -0.233529 165 157 144
0.004216 1.968683 -0.234717 167 157 145
0.013456 1.977821 -0.236318 166 156 144
0.022768 1.985811 -0.237787 148 138 126
0.032194 1.996129 -0.239535 143 133 121
0.041735 2.007237 -0.24138 66 57 47
0.051349 2.017199 -0.243095 140 131 123
0.060908 2.022332 -0.244242 139 131 121
0.070666 2.031682 -0.245891 161 152 143
0.080352 2.037053 -0.247071 152 143 134
0.090258 2.046144 -0.248697 121 112 104
0.099993 2.050083 -0.24971 163 154 144
0.109294 2.045374 -0.249686 165 157 146
0.118791 2.044666 -0.25014 136 129 113
0.129618 2.064818 -0.253107 127 120 104
0.140161 2.078036 -0.255246 126 118 100
0.150266 2.083562 -0.25646 123 114 97
0.160255 2.086905 -0.257411 122 113 96
0.170208 2.089386 -0.258258 121 112 95
0.1807 2.097717 -0.259817 121 112 95
0.190607 2.09881 -0.260496 120 111 94
0.200389 2.098458 -0.260998 121 112 95
0.210162 2.098003 -0.261486 122 113 96
0.219827 2.096526 -0.261846 121 112 96
0.229193 2.09243 -0.261882 123 114 99
0.238514 2.088222 -0.261901 123 114 99
0.247852 2.084432 -0.261968 121 112 97
0.256956 2.079001 -0.261828 122 113 98
0.266169 2.074749 -0.261831 122 113 97
0.275151 2.069015 -0.261645 122 113 96
0.284407 2.065579 -0.261742 121 112 97
0.293555 2.061554 -0.261762 122 113 98
0.302227 2.054523 -0.261402 120 111 96
0.310755 2.046925 -0.260966 120 113 97
0.319552 2.041414 -0.260787 119 112 96
0.328685 2.038213 -0.260894 118 111 94
0.337478 2.033094 -0.260756 118 111 93
0.346093 2.027155 -0.26051 117 110 92
0.354668 2.021231 -0.260262 114 107 90
0.362526 2.01161 -0.259539 112 105 88
0.371061 2.006019 -0.259323 112 105 89
0.379795 2.001665 -0.25926 27 22 13
0.388455 1.997066 -0.259162 98 97 84
0.396781 1.990942 -0.258864 48 45 31
-0.660129 1.107625 -0.094013 157 151 137
-0.663272 1.123191 -0.095682 158 152 138
-0.657585 1.124223 -0.096194 158 152 138
-0.653948 1.128894 -0.097018 159 153 139
-0.65115 1.135213 -0.097993 159 153 139
-0.647608 1.140455 -0.098896 160 154 140
-0.643243 1.144442 -0.099709 160 154 140
-0.640593 1.151639 -0.100803 161 154 140
-0.636017 1.155584 -0.101639 160 154 141
-0.631207 1.159242 -0.102461 160 154 140
-0.628049 1.16606 -0.103561 160 154 140
-0.624262 1.171889 -0.104588 161 155 141
-0.619483 1.175999 -0.105478 161 155 143
-0.614228 1.179305 -0.106306 161 155 143
-0.608813 1.182377 -0.107119 162 156 142
-0.606384 1.191322 -0.108448 161 155 141
-0.601536 1.19569 -0.109385 161 155 141
-0.597259 1.201271 -0.110433 162 156 142
-0.590518 1.201973 -0.111054 162 156 142
-0.587395 1.210037 -0.112329 162 156 142
-0.583073 1.215765 -0.113401 163 157 143
-0.578199 1.22042 -0.11438 162 156 142
-0.574274 1.227137 -0.115546 163 157 143
-0.568924 1.230896 -0.116446 163 157 143
-0.564158 1.235943 -0.117464 164 158 144
-0.559799 1.241936 -0.118568 164 158 144
-0.555347 1.247793 -0.119662 164 157 144
-0.550597 1.253045 -0.1207 165 158 145
-0.545625 1.257841 -0.121695 165 158 145
-0.543091 1.268319 -0.123222 165 158 146
-0.537295 1.271328 -0.12405 165 159 146
-0.531084 1.273336 -0.124781 166 159 147
-0.527488 1.281608 -0.126103 166 159 147
-0.522862 1.287493 -0.127199 167 160 147
-0.516653 1.289524 -0.127926 167 160 148
-0.513061 1.298087 -0.129277 167 161 148
-0.50795 1.302925 -0.13027 168 161 148
-0.502595 1.307171 -0.131205 168 161 148
-0.497938 1.313272 -0.132318 169 162 148
-0.492732 1.317995 -0.133296 169 162 149
-0.487161 1.321773 -0.13418 169 162 149
-0.48273 1.328687 -0.13537 170 162 150
-0.477495 1.33348 -0.136351 170 162 150
-0.471991 1.337567 -0.137261 170 162 151
-0.465937 1.340114 -0.138015 170 162 151
-0.466504 1.361852 -0.140686 170 163 151
-0.461945 1.369071 -0.141911 171 163 151
-0.457625 1.377141 -0.143222 171 163 152
-0.453488 1.385932 -0.144607 171 163 152
-0.449262 1.394639 -0.145986 171 163 152
-0.44487 1.403021 -0.147333 172 164 153
-0.441106 1.413592 -0.148905 172 164 153
-0.432636 1.409187 -0.148945 173 165 152
-0.425189 1.40792 -0.149301 174 166 153
-0.424278 1.428413 -0.151898 174 166 154
-0.417616 1.429942 -0.15254 174 166 154
-0.410231 1.428945 -0.152918 174 166 153
-0.403166 1.428964 -0.153397 174 166 153
-0.39688 1.4317 -0.154157 175 167 154
-0.39122 1.436753 -0.155157 174 166 153
-0.386459 1.445265 -0.156522 174 166 153
-0.380924 1.45109 -0.157606 175 167 154
-0.375229 1.456451 -0.15864 176 168 155
-0.369872 1.463279 -0.159831 175 167 154
-0.364232 1.469175 -0.160924 175 167 154
-0.358698 1.475677 -0.162082 175 167 154
-0.35304 1.48186 -0.163207 175 167 154
-0.347436 1.488467 -0.164379 175 167 154
-0.341952 1.495818 -0.165633 174 166 154
-0.336119 1.501868 -0.166748 174 166 154
-0.33039 1.508599 -0.167937 174 166 154
-0.324146 1.513181 -0.168895 174 166 154
-0.318416 1.52036 -0.170136 174 166 154
-0.312716 1.527966 -0.171426 174 166 154
-0.307187 1.536735 -0.172846 174 166 154
-0.301087 1.542958 -0.173989 174 166 154
-0.294913 1.549058 -0.17512 174 166 154
-0.289165 1.557709 -0.176535 174 166 154
-0.282284 1.560517 -0.177305 174 166 153
-0.2749 1.560585 -0.17777 174 166 153
-0.267843 1.5625 -0.178439 174 165 153
-0.263299 1.579525 -0.180796 173 165 154
-0.264532 1.633096 -0.187255 173 165 154
-0.254482 1.61824 -0.186058 173 165 153
-0.246725 1.617414 -0.186431 173 165 154
-0.240653 1.627878 -0.188076 173 165 152
-0.23409 1.635562 -0.189411 173 165 152
-0.227589 1.644172 -0.190854 173 165 152
-0.220664 1.650187 -0.192006 172 164 151
-0.217512 1.685825 -0.196537 172 164 151
-0.210737 1.695004 -0.198063 172 164 151
-0.202232 1.690394 -0.198012 172 164 151
-0.195045 1.696843 -0.199228 172 163 153
-0.188709 1.711521 -0.201394 172 164 153
-0.181879 1.7228 -0.203175 173 164 153
-0.174527 1.729904 -0.204478 156 147 135
-0.166785 1.733603 -0.205389 148 140 127
-0.160791 1.7568 -0.208568 47 38 30
-0.153247 1.764566 -0.20996 154 147 137
-0.145744 1.773705 -0.211516 80 73 63
-0.138229 1.783744 -0.213182 132 125 116
-0.130243 1.788557 -0.214238 140 133 126
-0.122931 1.803949 -0.216542 136 129 123
-0.115721 1.823223 -0.21931 146 137 129
-0.107459 1.827512 -0.220317 117 110 101
-0.099257 1.833637 -0.221543 168 160 150
-0.089016 1.799204 -0.217954 168 160 149
-0.082293 1.83698 -0.222942 168 160 149
-0.075638 1.885416 -0.229223 169 161 150
-0.06676 1.883014 -0.229448 168 160 149
-0.058209 1.890678 -0.230878 167 159 148
-0.04989 1.91026 -0.233744 167 159 148
-0.04145 1.932821 -0.236978 166 158 147
-0.032929 1.963441 -0.241196 167 159 148
-0.023916 1.975965 -0.243242 166 158 147
-0.014626 1.964353 -0.242366 165 157 145
-0.005473 1.96636 -0.243139 165 157 144
0.003723 1.976988 -0.244962 167 157 145
0.01296 1.979844 -0.245841 166 156 144
0.022222 1.982541 -0.246702 152 142 130
0.031607 1.991013 -0.248271 142 132 121
0.041089 2.000343 -0.24995 63 53 43
0.050818 2.015726 -0.252378 142 133 123
0.060427 2.022537 -0.253756 110 103 93
0.070016 2.026955 -0.25484 162 154 144
0.079817 2.035593 -0.256449 152 144 135
0.08966 2.043336 -0.257951 111 103 94
0.099291 2.045323 -0.25874 163 154 145
0.108829 2.045213 -0.259267 165 156 146
0.118749 2.051576 -0.260602 140 132 118
0.129647 2.072283 -0.263737 130 121 105
0.140125 2.083987 -0.265752 126 117 100
0.15015 2.087949 -0.266798 124 115 98
0.160191 2.091611 -0.267807 122 113 96
0.170172 2.094083 -0.268667 121 112 95
0.180161 2.096345 -0.269501 121 112 95
0.190141 2.098224 -0.270286 122 113 96
0.19982 2.096775 -0.270648 121 112 95
0.209585 2.096247 -0.271126 122 113 96
0.219145 2.093788 -0.271355 121 112 95
0.228637 2.090876 -0.271525 122 113 96
0.237944 2.086552 -0.27151 121 112 97
0.247282 2.082763 -0.271561 123 114 99
0.256817 2.080782 -0.271842 122 113 98
0.265819 2.074781 -0.271602 122 113 97
0.27477 2.068767 -0.271355 122 114 97
0.284083 2.065702 -0.271487 120 113 97
0.293238 2.061673 -0.27149 122 113 98
0.302054 2.055562 -0.271219 122 113 98
0.310891 2.049891 -0.271001 121 112 97
0.319871 2.045401 -0.270933 119 112 96
0.328445 2.038618 -0.270562 120 113 96
0.337171 2.033047 -0.270344 119 110 93
0.345873 2.027573 -0.270135 118 109 92
0.354457 2.021654 -0.269863 116 109 91
0.362512 2.013063 -0.269235 112 105 87
0.370904 2.006641 -0.268887 111 105 88
0.379535 2.001702 -0.26873 29 25 15
0.38801 1.99613 -0.268486 19 19 10
0.396642 1.991514 -0.268364 65 62 49
0.404466 1.983113 -0.267734 82 79 64
-0.665132 1.114455 -0.100279 157 151 137
-0.663402 1.121927 -0.101332 157 151 137
-0.659932 1.126721 -0.102172 157 151 137
-0.656461 1.131719 -0.103046 158 152 138
-0.652238 1.135627 -0.10384 158 152 138
-0.647333 1.138517 -0.104558 159 153 139
-0.644228 1.14472 -0.10558 160 154 141
-0.640812 1.150574 -0.106586 159 153 141
-0.636493 1.154989 -0.107476 160 154 142
-0.631831 1.158928 -0.108335 160 154 140
-0.627175 1.163002 -0.109215 160 154 140
-0.623416 1.168864 -0.110265 160 154 140
-0.620933 1.177271 -0.111555 161 155 142
-0.613957 1.177338 -0.112095 160 154 140
-0.60818 1.179704 -0.112848 161 155 141
-0.60567 1.18847 -0.114195 161 155 141
-0.60096 1.193089 -0.115166 161 155 141
-0.594321 1.193944 -0.115791 161 155 141
-0.589427 1.198295 -0.116743 161 155 141
-0.588401 1.2106 -0.118445 161 155 141
-0.583723 1.215606 -0.119467 162 156 142
-0.580394 1.2235 -0.120766 162 156 142
-0.575298 1.227783 -0.121724 162 156 142
-0.570457 1.232648 -0.122738 163 157 143
-0.564767 1.23572 -0.12358 163 157 143
-0.56078 1.242534 -0.124784 164 158 144
-0.555833 1.247301 -0.12579 164 158 144
-0.551927 1.254457 -0.127029 164 158 145
-0.547852 1.261324 -0.128241 165 158 145
-0.541587 1.263214 -0.128965 165 158 146
-0.53609 1.266861 -0.129858 166 159 146
-0.532483 1.275006 -0.131197 166 159 147
-0.527936 1.281011 -0.132324 166 159 147
-0.523211 1.286652 -0.133415 167 160 147
-0.517944 1.291009 -0.134376 167 160 148
-0.514478 1.299907 -0.135794 167 161 148
-0.508532 1.302651 -0.13659 168 161 148
-0.502965 1.306353 -0.13748 168 161 148
-0.498035 1.311732 -0.13854 168 162 148
-0.492844 1.316477 -0.139534 169 162 149
-0.487783 1.321612 -0.140567 169 162 149
-0.482767 1.326928 -0.141618 170 162 150
-0.478117 1.333321 -0.14278 170 162 150
-0.47197 1.335602 -0.143513 170 162 151
-0.46674 1.340477 -0.144515 170 162 151
-0.467335 1.362283 -0.147291 170 162 151
-0.459982 1.361296 -0.14768 171 163 151
-0.454259 1.365055 -0.148564 170 162 151
-0.457108 1.394844 -0.152206 170 162 151
-0.449079 1.391976 -0.152392 171 163 152
-0.438978 1.382443 -0.151861 173 165 154
-0.43226 1.38328 -0.152429 173 165 152
-0.428346 1.393126 -0.153961 172 164 152
-0.423289 1.399466 -0.155118 173 165 154
-0.419151 1.409012 -0.156622 173 165 154
-0.415981 1.422094 -0.158512 174 166 154
-0.409341 1.423555 -0.159144 174 166 154
-0.403404 1.427461 -0.16004 175 167 155
-0.397925 1.433075 -0.161121 176 168 156
-0.392685 1.439693 -0.162314 176 168 155
-0.387152 1.445391 -0.163406 175 167 156
-0.381669 1.451424 -0.164535 175 167 154
-0.375881 1.456439 -0.165553 175 167 154
-0.369965 1.461078 -0.166529 175 167 154
-0.364653 1.468252 -0.167787 175 167 154
-0.358785 1.473376 -0.168818 175 167 154
-0.353399 1.480653 -0.170091 175 167 154
-0.347865 1.487544 -0.171322 174 166 154
-0.342038 1.493385 -0.172437 174 166 154
-0.336843 1.502228 -0.173891 174 166 154
