ply
format ascii 1.0
comment ---
element vertex 1222
property float x
property float y
property float z
property uchar red
property uchar green
property uchar blue
element face 0
property list uchar uint vertex_indices
end_header
0.291124 1.5839 -0.847333 100 51 34
0.304465 1.600056 -0.854723 100 51 34
0.314509 1.606501 -0.857314 100 51 34
0.329774 1.628043 -0.867252 100 51 35
0.34216 1.641216 -0.873048 99 51 35
0.351455 1.645786 -0.874597 98 51 35
-0.718642 1.148856 -0.696666 165 163 148
-0.713801 1.153813 -0.698639 167 165 150
-0.709815 1.160948 -0.701797 168 166 151
-0.70482 1.16572 -0.703671 169 167 151
-0.699383 1.169453 -0.704983 169 167 152
-0.694277 1.174089 -0.706786 171 168 153
-0.689416 1.179438 -0.708977 171 169 154
-0.684376 1.184418 -0.710968 170 168 153
-0.679585 1.190158 -0.71337 170 168 153
-0.673972 1.193778 -0.714628 171 169 154
-0.668605 1.198132 -0.716285 171 170 155
-0.665423 1.208723 -0.721299 173 171 156
-0.659777 1.212544 -0.722667 172 171 156
-0.654144 1.216467 -0.724092 172 170 155
-0.649068 1.222112 -0.726441 174 172 157
-0.64443 1.229205 -0.729567 175 172 157
-0.638488 1.232489 -0.73065 174 172 157
-0.633198 1.237859 -0.732852 175 173 158
-0.629453 1.248268 -0.737745 176 173 160
-0.624364 1.254645 -0.74048 177 173 161
-0.618464 1.258522 -0.74188 177 173 161
-0.612503 1.262276 -0.743216 178 174 161
-0.607409 1.269078 -0.746174 178 175 160
-0.601662 1.273801 -0.748026 177 175 160
-0.59591 1.278626 -0.749931 177 174 159
-0.590807 1.285938 -0.753156 178 174 161
-0.585419 1.292429 -0.755943 177 174 160
-0.58024 1.299916 -0.759256 178 175 160
-0.574181 1.304251 -0.760897 177 174 160
-0.568083 1.308554 -0.762523 178 175 162
-0.562497 1.315044 -0.765303 178 174 161
-0.556758 1.321128 -0.767867 178 174 162
-0.551026 1.327449 -0.770555 178 174 162
-0.544977 1.332628 -0.77264 178 174 162
-0.539152 1.338978 -0.77534 178 175 161
-0.532872 1.343501 -0.777077 178 174 161
-0.527327 1.351602 -0.780695 179 176 162
-0.521445 1.358432 -0.783642 179 176 161
-0.515771 1.36657 -0.787273 179 176 162
-0.509646 1.372802 -0.789902 179 175 163
-0.503698 1.380218 -0.793149 180 176 163
-0.497809 1.388293 -0.796739 180 176 163
-0.491459 1.394237 -0.799212 181 178 165
-0.484953 1.399572 -0.801366 181 178 164
-0.478392 1.404833 -0.803482 181 177 164
-0.472148 1.412254 -0.806722 181 178 166
-0.46586 1.419806 -0.810029 182 179 164
-0.459816 1.429352 -0.814371 182 178 166
-0.453075 1.434844 -0.816602 181 177 165
-0.446549 1.442134 -0.819767 180 176 164
-0.439797 1.448255 -0.822324 180 176 164
-0.433298 1.456648 -0.826058 179 175 163
-0.426677 1.464687 -0.829607 176 173 160
-0.420393 1.476015 -0.834856 173 170 157
-0.413723 1.485007 -0.838893 169 166 154
-0.406943 1.493751 -0.842798 163 161 148
-0.399941 1.501189 -0.846027 158 156 143
-0.392907 1.508954 -0.849424 152 150 137
-0.385617 1.514833 -0.851848 147 145 131
-0.378224 1.520141 -0.853979 132 129 115
-0.371088 1.52891 -0.857892 102 95 84
-0.363134 1.52873 -0.8572 88 79 70
-0.355007 1.526148 -0.85528 77 69 58
-0.346053 1.511554 -0.847197 71 63 52
-0.324448 1.414391 -0.796215 60 53 42
-0.31592 1.392632 -0.784535 55 45 36
-0.308596 1.389925 -0.782636 56 42 32
-0.301414 1.389556 -0.78194 57 38 25
-0.294221 1.388693 -0.780998 61 35 22
-0.287495 1.400581 -0.786579 63 35 21
-0.280932 1.421699 -0.796872 65 33 20
-0.273739 1.426372 -0.798763 68 35 19
-0.266405 1.42624 -0.798206 83 45 29
-0.259145 1.430803 -0.800049 98 56 40
-0.251818 1.433105 -0.800743 104 59 44
-0.244451 1.43169 -0.799551 108 62 47
-0.237097 1.435943 -0.801249 108 64 49
-0.229707 1.438977 -0.802332 110 66 50
-0.222263 1.444051 -0.804456 114 67 51
-0.214805 1.446627 -0.805315 115 69 53
-0.207263 1.451899 -0.807548 116 70 54
-0.199807 1.451692 -0.807007 116 70 54
-0.192365 1.451049 -0.806252 118 72 56
-0.184917 1.450631 -0.805619 119 71 55
-0.177367 1.452658 -0.806232 120 72 56
-0.170141 1.447194 -0.803061 120 71 54
-0.16316 1.438013 -0.79802 120 71 54
-0.155209 1.447325 -0.802341 121 72 55
-0.14751 1.450932 -0.803782 120 71 54
-0.140023 1.450731 -0.803306 120 71 54
-0.131955 1.458421 -0.806821 119 70 53
-0.123468 1.470339 -0.812474 117 68 51
-0.114716 1.483815 -0.818914 117 68 51
-0.107819 1.474576 -0.813909 117 68 51
-0.100557 1.470138 -0.811336 119 68 51
-0.091953 1.479623 -0.815783 118 67 50
-0.083809 1.483594 -0.81746 119 68 51
-0.077078 1.474126 -0.812383 119 68 49
-0.069069 1.476537 -0.813292 119 68 49
-0.061656 1.473634 -0.811537 119 68 49
-0.052516 1.484645 -0.816784 118 67 48
-0.044334 1.487284 -0.817831 117 68 48
-0.037546 1.479306 -0.813553 117 67 48
-0.027809 1.49271 -0.820019 118 67 48
-0.019143 1.497687 -0.822261 120 67 49
-0.012246 1.490518 -0.818418 119 66 48
-0.004842 1.486938 -0.816384 118 67 48
0.002431 1.482661 -0.81401 117 66 47
0.0103 1.482087 -0.813501 117 66 47
0.018718 1.484597 -0.814543 116 66 49
0.027514 1.488958 -0.81652 114 65 49
0.035512 1.488613 -0.816144 113 65 49
0.041899 1.479683 -0.811478 111 64 48
0.060585 1.492493 -0.817513 111 63 47
0.066418 1.481207 -0.811685 110 63 47
0.075653 1.486521 -0.814166 109 62 46
0.083975 1.48729 -0.814375 108 60 45
0.093254 1.492263 -0.816686 109 61 46
0.101796 1.493715 -0.817238 109 60 45
0.108859 1.488727 -0.814572 109 60 45
0.11877 1.495861 -0.81796 110 60 44
0.128432 1.501643 -0.820668 109 59 42
0.137719 1.505675 -0.822496 109 58 41
0.14526 1.502719 -0.82083 108 56 39
0.152821 1.500001 -0.819276 107 54 38
0.159509 1.494175 -0.816163 106 53 37
0.173556 1.515702 -0.826681 104 52 36
0.183744 1.52256 -0.829868 105 52 36
0.191978 1.522361 -0.82952 105 52 36
0.200877 1.524602 -0.830372 103 52 35
0.211217 1.531813 -0.833679 102 52 35
0.221313 1.538113 -0.83651 99 50 33
0.23077 1.542285 -0.838257 100 51 34
0.24124 1.549791 -0.841636 100 51 35
0.250144 1.552303 -0.842503 99 50 34
0.27424 1.602408 -0.866988 101 51 35
0.271703 1.569353 -0.85012 100 51 34
0.280666 1.572393 -0.851154 101 51 34
0.289884 1.576398 -0.852633 100 51 34
0.299901 1.582941 -0.855334 99 50 33
0.311934 1.595453 -0.860952 99 50 33
0.3259 1.613471 -0.869251 100 51 35
0.337433 1.624496 -0.874042 99 50 35
0.325407 1.570064 -0.846452 99 51 35
-0.718997 1.14822 -0.703577 164 163 148
-0.714058 1.152967 -0.705451 167 165 150
-0.709194 1.157972 -0.707468 167 165 150
-0.704287 1.162954 -0.709475 167 165 150
-0.699189 1.16754 -0.711265 168 166 151
-0.695086 1.17475 -0.714495 169 167 153
-0.689954 1.17944 -0.716343 170 168 154
-0.684458 1.183253 -0.717713 169 167 153
-0.679981 1.189852 -0.720608 170 168 154
-0.674439 1.193699 -0.721999 170 168 153
-0.669903 1.200394 -0.724944 171 169 154
-0.665376 1.207266 -0.727985 171 169 154
-0.659878 1.211528 -0.729604 171 169 154
-0.654049 1.214903 -0.730742 172 170 155
-0.649819 1.223064 -0.734481 173 171 156
-0.644988 1.229632 -0.737352 173 171 156
-0.639743 1.235101 -0.739626 174 172 157
-0.634676 1.241252 -0.742269 174 172 157
-0.629599 1.247533 -0.74498 175 173 159
-0.624104 1.252625 -0.747049 176 173 160
-0.61879 1.258439 -0.749506 176 173 161
-0.613026 1.262901 -0.751234 176 173 160
-0.608303 1.271026 -0.754935 176 174 161
-0.602116 1.274298 -0.756022 176 174 161
-0.596358 1.279162 -0.757965 177 174 161
-0.591001 1.285607 -0.760758 177 173 161
-0.585893 1.293177 -0.764152 176 173 159
-0.580829 1.301161 -0.767764 176 173 158
-0.574526 1.304635 -0.768959 176 172 160
-0.568426 1.308989 -0.770627 176 172 160
-0.563241 1.31716 -0.774333 176 172 160
-0.557521 1.323423 -0.777018 177 173 161
-0.550728 1.325376 -0.777403 177 173 161
-0.545116 1.332452 -0.78052 176 173 158
-0.539229 1.33858 -0.78313 177 174 159
-0.533157 1.344099 -0.785414 177 174 159
-0.526977 1.34932 -0.78754 178 175 160
-0.520728 1.354406 -0.789593 178 175 160
-0.515669 1.365516 -0.794841 178 175 160
-0.509537 1.371753 -0.7975 178 175 161
-0.50356 1.379063 -0.800727 179 175 163
-0.49748 1.386157 -0.803837 179 175 163
-0.49149 1.394085 -0.807386 181 177 164
-0.484888 1.398955 -0.809317 181 177 165
-0.478344 1.404383 -0.811542 180 177 164
-0.472136 1.412089 -0.814969 179 177 164
-0.466106 1.421327 -0.8192 181 178 163
-0.459841 1.429603 -0.82292 181 177 164
-0.453183 1.43575 -0.82552 179 176 164
-0.446444 1.441705 -0.828018 179 175 163
-0.439522 1.446708 -0.830016 177 174 162
-0.433552 1.45908 -0.835878 176 172 160
-0.426993 1.46782 -0.839832 173 170 157
-0.420269 1.475861 -0.843418 168 166 153
-0.41354 1.484483 -0.847306 165 163 150
-0.406516 1.491194 -0.850193 161 159 146
-0.399693 1.50031 -0.854336 156 154 141
-0.392275 1.504463 -0.855887 153 151 138
-0.38489 1.50929 -0.857792 148 146 131
-0.377488 1.514375 -0.859832 138 137 122
-0.369915 1.517987 -0.861107 114 110 96
-0.362228 1.520556 -0.861842 90 81 72
-0.354184 1.518709 -0.860286 82 74 64
-0.347395 1.533995 -0.867637 71 64 54
-0.317248 1.421497 -0.807572 55 50 42
-0.30849 1.393806 -0.7927 52 46 38
-0.300868 1.384582 -0.787413 50 40 32
-0.29372 1.384586 -0.786911 49 35 23
-0.286453 1.381073 -0.784598 52 33 21
-0.279286 1.379524 -0.783308 57 32 21
-0.272254 1.382619 -0.784422 58 31 19
-0.265606 1.406548 -0.796288 64 33 21
-0.258465 1.413488 -0.799386 72 37 22
-0.251259 1.420927 -0.802742 84 45 32
-0.243937 1.419138 -0.80135 103 60 45
-0.236634 1.418073 -0.800338 108 64 49
-0.229287 1.426285 -0.804104 112 67 51
-0.221895 1.430852 -0.805999 114 68 52
-0.214484 1.433654 -0.806991 113 67 51
-0.207166 1.43068 -0.805025 113 67 51
-0.199771 1.431633 -0.805082 116 70 54
-0.192356 1.432824 -0.805268 117 71 55
-0.184644 1.441638 -0.809366 118 71 55
-0.177579 1.4328 -0.804429 118 71 55
-0.170267 1.431004 -0.803109 119 70 55
-0.162842 1.431606 -0.803023 118 69 53
-0.155462 1.431183 -0.802422 119 70 54
-0.147982 1.432317 -0.802624 119 70 54
-0.140401 1.434639 -0.803441 119 70 53
-0.132389 1.442392 -0.807037 118 69 52
-0.124094 1.452589 -0.811885 117 68 51
-0.115753 1.461949 -0.81631 116 67 50
-0.10964 1.445007 -0.807331 117 68 51
-0.101353 1.452913 -0.81103 115 66 49
-0.093387 1.456629 -0.812599 118 67 50
-0.085952 1.454767 -0.811336 118 67 50
-0.077954 1.458071 -0.812712 119 68 50
-0.069975 1.460771 -0.813787 119 68 50
-0.061827 1.464504 -0.815395 119 68 49
-0.054949 1.45769 -0.811651 119 68 49
-0.046723 1.461581 -0.813356 118 67 48
-0.040041 1.453714 -0.809097 116 68 48
-0.032832 1.450034 -0.806975 117 66 47
-0.023892 1.458258 -0.810905 118 66 47
-0.013736 1.473751 -0.818528 117 64 46
-0.005552 1.475577 -0.819222 119 66 49
0.001056 1.467489 -0.814896 117 66 48
0.008748 1.466235 -0.814044 117 66 48
0.016907 1.467631 -0.814543 117 66 49
0.025341 1.470355 -0.815721 116 66 49
0.032534 1.466103 -0.813371 116 66 51
0.03839 1.454966 -0.807542 114 65 49
0.043214 1.439085 -0.799319 112 63 48
0.054959 1.458369 -0.808903 112 63 48
0.06303 1.45878 -0.808936 110 62 47
0.071888 1.462804 -0.8108 110 63 47
0.080732 1.466497 -0.812498 110 62 47
0.089978 1.471753 -0.814986 109 61 46
0.095804 1.461767 -0.809768 109 60 45
0.102842 1.457397 -0.80739 107 59 43
0.114822 1.473809 -0.815512 107 58 42
0.126131 1.486743 -0.821869 106 57 41
0.133979 1.485323 -0.820969 108 58 41
0.141169 1.481428 -0.818812 109 58 41
0.149905 1.483638 -0.81973 109 56 40
0.157308 1.480832 -0.818106 108 55 39
0.165104 1.479658 -0.817295 106 55 38
0.177296 1.494409 -0.824502 104 53 36
0.185886 1.49602 -0.825064 103 52 35
0.192252 1.490018 -0.821772 103 52 35
0.206939 1.512617 -0.832872 101 51 34
0.214501 1.510839 -0.831665 100 51 34
0.227124 1.525886 -0.838905 100 51 34
0.232812 1.51831 -0.83473 100 51 34
0.234012 1.497009 -0.823629 101 52 36
0.244023 1.504079 -0.826773 102 50 36
0.263822 1.541185 -0.844971 101 51 34
0.27615 1.554878 -0.851361 102 51 34
0.289259 1.570779 -0.858817 99 50 33
0.297366 1.57187 -0.858804 100 51 34
0.306324 1.57571 -0.860132 99 50 34
0.312449 1.571701 -0.857494 100 51 35
0.324281 1.584184 -0.863071 99 50 35
0.353191 1.644089 -0.892296 98 49 34
-0.72429 1.142863 -0.708644 162 163 147
-0.7192 1.147206 -0.710306 162 163 147
-0.713985 1.151309 -0.711837 164 165 149
-0.708509 1.154829 -0.713046 164 165 149
-0.703765 1.160205 -0.71529 166 165 151
-0.699658 1.167281 -0.718478 167 165 151
-0.695402 1.174129 -0.721538 168 166 153
-0.689994 1.178133 -0.723022 169 167 154
-0.68432 1.181492 -0.724151 167 167 153
-0.680444 1.189713 -0.72797 169 167 154
-0.674932 1.193679 -0.729437 170 168 155
-0.669475 1.19786 -0.731025 170 168 153
-0.666077 1.207904 -0.735843 171 169 154
-0.661112 1.213737 -0.738339 171 169 154
-0.655333 1.217337 -0.739607 171 169 154
-0.650714 1.224427 -0.742793 172 170 155
-0.645397 1.229599 -0.744926 173 171 156
-0.640142 1.235075 -0.747225 173 171 156
-0.634773 1.240327 -0.749401 173 171 157
-0.629231 1.245158 -0.751346 173 171 157
-0.624699 1.253362 -0.755134 174 172 159
-0.619549 1.259773 -0.75794 174 172 159
-0.613993 1.265001 -0.7601 174 172 159
-0.608377 1.270159 -0.762222 175 173 160
-0.602613 1.274937 -0.764137 174 172 159
-0.596698 1.2793 -0.765826 175 172 159
-0.591127 1.285022 -0.768253 174 172 159
-0.586196 1.293282 -0.772056 174 171 157
-0.580742 1.299841 -0.774934 176 173 158
-0.575038 1.30565 -0.777404 175 172 157
-0.569361 1.311751 -0.780031 174 171 159
-0.563583 1.317644 -0.782544 175 172 159
-0.557509 1.322515 -0.784504 176 172 160
-0.551682 1.328583 -0.78711 176 173 159
-0.545954 1.335289 -0.790058 176 173 158
-0.539481 1.338956 -0.791368 177 174 159
-0.533135 1.343301 -0.793044 176 173 158
-0.52711 1.349287 -0.795602 176 173 158
-0.521024 1.355215 -0.798128 177 174 159
-0.514903 1.361208 -0.800688 177 174 159
-0.509483 1.370981 -0.805272 178 175 160
-0.50338 1.377689 -0.80821 178 176 161
-0.497557 1.386191 -0.812107 179 176 163
-0.491308 1.392778 -0.814977 180 176 163
-0.484834 1.398411 -0.817336 179 176 163
-0.478389 1.40448 -0.819927 179 176 164
-0.472233 1.412587 -0.823605 179 177 164
-0.465838 1.419666 -0.826731 179 177 164
-0.459445 1.427154 -0.830074 180 177 164
-0.453552 1.438403 -0.835415 178 175 162
-0.446499 1.442393 -0.836895 177 174 161
-0.440075 1.451096 -0.840877 174 171 159
-0.433338 1.458059 -0.843935 173 169 157
-0.426938 1.468099 -0.848622 169 167 154
-0.420004 1.474589 -0.851426 165 163 150
-0.412841 1.479627 -0.853462 164 162 149
-0.405913 1.487108 -0.85679 159 157 144
-0.398629 1.491906 -0.858701 155 153 140
-0.39088 1.492576 -0.858434 152 150 137
-0.383646 1.498487 -0.860936 147 145 129
-0.376196 1.502612 -0.862498 142 140 124
-0.368802 1.507774 -0.864609 124 121 107
-0.361359 1.512865 -0.866684 93 86 76
-0.353812 1.517197 -0.868362 84 76 68
-0.346628 1.5271 -0.87297 73 68 59
-0.34014 1.548957 -0.883851 57 52 44
-0.313101 1.491002 -0.851728 35 31 24
-0.293237 1.38104 -0.793108 39 34 25
-0.285984 1.377819 -0.790924 36 29 20
-0.278772 1.374722 -0.788814 35 24 15
-0.271575 1.37078 -0.786271 42 25 17
-0.264459 1.368798 -0.78476 53 28 20
-0.257461 1.373417 -0.786698 58 31 19
-0.250492 1.386114 -0.792847 63 31 19
-0.243409 1.402894 -0.801121 71 35 22
-0.236168 1.406292 -0.802428 89 48 34
-0.228906 1.407579 -0.802642 107 62 47
-0.221612 1.410411 -0.803665 114 69 54
-0.214369 1.40831 -0.802132 113 68 52
-0.20713 1.406982 -0.801009 114 68 52
-0.199791 1.409732 -0.802009 118 72 56
-0.192471 1.410919 -0.802206 117 71 55
-0.185055 1.414245 -0.803517 115 68 52
-0.177664 1.416065 -0.804055 115 68 52
-0.170185 1.419221 -0.805291 116 69 53
-0.162635 1.422972 -0.806841 116 69 52
-0.155317 1.421952 -0.805931 116 68 52
-0.148117 1.419123 -0.804094 118 69 53
-0.141223 1.412131 -0.800118 118 69 54
-0.133885 1.412025 -0.799708 118 69 52
-0.126103 1.417422 -0.802146 116 67 50
-0.118219 1.423238 -0.804807 117 68 51
-0.109964 1.432388 -0.809192 115 66 49
-0.102566 1.431354 -0.808333 115 66 49
-0.094737 1.434607 -0.809693 115 66 49
-0.087407 1.432662 -0.808383 116 66 49
-0.078522 1.444842 -0.814353 117 67 50
-0.070622 1.44727 -0.815309 117 67 49
-0.064535 1.434389 -0.808401 118 67 48
-0.056921 1.434537 -0.808204 118 67 48
-0.048434 1.441171 -0.811348 118 67 48
-0.04078 1.44108 -0.811045 118 67 50
-0.034056 1.434335 -0.807333 118 67 48
-0.026847 1.431235 -0.805503 118 66 46
-0.018262 1.437218 -0.808343 117 64 48
-0.011804 1.42925 -0.804032 118 65 48
-0.003608 1.432298 -0.805382 117 65 49
0.006041 1.443613 -0.810976 117 66 49
0.013114 1.439373 -0.808601 117 66 49
0.021932 1.444966 -0.811273 116 65 48
0.030194 1.447131 -0.812192 116 66 49
0.034475 1.428249 -0.802337 115 65 48
0.04145 1.42403 -0.8 114 65 48
0.048961 1.422607 -0.7991 114 65 49
0.060545 1.440808 -0.808248 113 64 49
0.06844 1.440691 -0.808021 113 63 47
0.074797 1.433485 -0.804169 112 63 46
0.081495 1.42811 -0.801256 111 61 45
0.090068 1.431118 -0.802631 109 60 45
0.099967 1.439599 -0.806802 108 60 44
0.109979 1.448147 -0.811002 107 58 43
0.120072 1.456642 -0.815169 103 55 40
0.126003 1.448251 -0.810701 105 56 41
0.137478 1.461796 -0.817433 104 55 38
0.145742 1.462606 -0.817648 104 55 38
0.153541 1.461713 -0.816984 106 55 39
0.160865 1.459206 -0.815483 106 54 38
0.169385 1.461179 -0.816254 106 54 38
0.176808 1.459344 -0.815066 105 53 37
0.188882 1.47374 -0.822137 104 53 36
0.19852 1.479523 -0.824792 102 52 35
0.207841 1.484226 -0.826872 100 50 33
0.213168 1.475918 -0.822301 99 50 33
0.222397 1.48063 -0.824334 99 50 34
0.23271 1.488835 -0.828115 100 50 34
0.240753 1.489969 -0.828268 101 50 35
0.254426 1.50854 -0.83725 102 51 35
0.265971 1.520417 -0.842789 102 51 34
0.277045 1.530833 -0.847545 101 51 34
0.279149 1.515027 -0.838964 99 50 33
0.29847 1.549612 -0.855891 100 51 35
0.306289 1.550872 -0.855884 99 50 35
0.313109 1.549626 -0.854572 98 49 34
0.324188 1.56055 -0.859376 98 49 34
-0.723752 1.14008 -0.714387 160 161 145
-0.719593 1.146628 -0.717307 160 162 145
-0.713924 1.149667 -0.718249 163 164 148
-0.708318 1.152882 -0.719294 164 164 148
-0.70319 1.157313 -0.721027 166 164 151
-0.699587 1.165649 -0.724954 166 164 150
-0.695322 1.172484 -0.728037 167 165 152
-0.690434 1.177849 -0.730294 169 166 153
-0.686145 1.184893 -0.733492 165 166 152
-0.680784 1.189226 -0.735173 169 167 154
-0.675924 1.194996 -0.737659 169 167 154
-0.671447 1.201948 -0.740803 169 167 152
-0.666364 1.20736 -0.743087 170 168 153
-0.66078 1.211457 -0.74464 170 168 153
-0.655789 1.21735 -0.747193 171 169 154
-0.650746 1.223224 -0.749735 172 170 155
-0.646009 1.230159 -0.752865 171 169 154
-0.640689 1.235489 -0.755103 172 170 155
-0.634834 1.239278 -0.756489 173 171 156
-0.63028 1.247262 -0.760196 173 171 157
-0.625187 1.253736 -0.763065 174 172 157
-0.619891 1.259719 -0.765662 173 171 158
-0.614299 1.264869 -0.767799 174 172 159
-0.608676 1.27005 -0.769953 173 171 158
-0.602793 1.274457 -0.771681 173 171 157
-0.597276 1.280277 -0.774186 173 171 157
-0.591385 1.284907 -0.776037 173 171 158
-0.585544 1.289846 -0.778057 174 171 157
-0.580514 1.297987 -0.781832 174 171 156
-0.574944 1.304322 -0.784615 175 171 159
-0.569177 1.310093 -0.787088 174 171 156
-0.563339 1.315761 -0.789504 173 171 156
-0.557172 1.32026 -0.791281 175 172 158
-0.552206 1.329966 -0.795897 175 172 159
-0.545976 1.334597 -0.797744 175 172 158
-0.539579 1.338645 -0.799274 175 172 157
-0.533517 1.344332 -0.801696 175 172 157
-0.527508 1.35048 -0.804368 176 173 158
-0.521185 1.355376 -0.806359 175 172 157
-0.514984 1.361055 -0.808774 177 174 159
-0.509864 1.372399 -0.814259 178 175 160
-0.503829 1.37957 -0.817478 177 175 161
-0.497554 1.385797 -0.820184 178 175 162
-0.491038 1.390984 -0.822328 178 175 162
-0.485097 1.399656 -0.826353 177 175 162
-0.47873 1.406305 -0.829284 178 176 163
-0.472465 1.413903 -0.832726 177 175 162
-0.466311 1.422614 -0.836764 178 176 163
-0.459745 1.429189 -0.839651 178 174 162
-0.453453 1.437964 -0.843719 177 173 161
-0.446709 1.444168 -0.846403 174 172 159
-0.439934 1.450533 -0.849174 173 169 157
-0.433084 1.456755 -0.851867 171 167 155
-0.426373 1.464459 -0.855356 167 165 152
-0.419365 1.470327 -0.857858 164 162 149
-0.412385 1.476851 -0.860713 161 159 146
-0.405045 1.480703 -0.86214 158 156 143
-0.397371 1.481739 -0.862065 154 152 139
-0.38996 1.485331 -0.863359 152 150 136
-0.383817 1.502221 -0.871747 147 146 128
-0.376012 1.502887 -0.871482 142 141 123
-0.36728 1.492873 -0.865536 131 129 114
-0.360146 1.501003 -0.869258 100 97 86
-0.352576 1.504445 -0.870487 84 77 70
-0.345846 1.520041 -0.878176 64 59 52
-0.338568 1.529699 -0.882707 37 34 27
-0.330582 1.529253 -0.881878 27 25 17
-0.322332 1.523842 -0.878423 21 20 14
-0.312154 1.478956 -0.85407 20 19 13
-0.286 1.388632 -0.804687 17 16 9
-0.278267 1.370353 -0.794531 15 14 6
-0.271063 1.365821 -0.791652 16 13 6
-0.263935 1.362651 -0.789501 27 17 10
-0.25685 1.360027 -0.787646 42 23 15
-0.249794 1.357529 -0.785867 53 27 19
-0.242775 1.357566 -0.785431 58 30 19
-0.235715 1.385425 -0.79964 63 30 16
-0.228477 1.396648 -0.805091 70 35 21
-0.221251 1.396913 -0.804783 83 45 30
-0.214111 1.391917 -0.80172 104 63 48
-0.206861 1.39414 -0.802456 111 67 52
-0.199565 1.397085 -0.803577 115 69 53
-0.192241 1.399831 -0.8046 113 67 51
-0.184926 1.401484 -0.805057 113 67 51
-0.177476 1.405792 -0.806911 113 66 50
-0.170081 1.407897 -0.807618 113 67 51
-0.162844 1.406512 -0.806506 114 67 50
-0.155173 1.412661 -0.809343 114 67 50
-0.147999 1.409903 -0.80753 115 68 51
-0.141027 1.404497 -0.804344 115 68 52
-0.133877 1.402147 -0.802765 116 69 51
-0.126673 1.400654 -0.801642 116 68 50
-0.119158 1.402878 -0.802468 116 67 51
-0.11116 1.410094 -0.805904 116 67 50
-0.103254 1.415411 -0.808357 115 66 49
-0.096721 1.406396 -0.803349 116 67 50
-0.088576 1.413379 -0.806685 116 67 50
-0.080797 1.416272 -0.807898 115 66 49
-0.073116 1.417932 -0.808478 115 66 49
-0.065442 1.419268 -0.808896 116 67 49
-0.057877 1.419498 -0.808749 115 66 48
-0.04924 1.42768 -0.812743 117 66 49
-0.041798 1.42642 -0.811837 117 66 49
-0.035092 1.419991 -0.808255 117 66 48
-0.02799 1.416573 -0.806248 117 65 47
-0.020583 1.415248 -0.805336 117 64 48
-0.013379 1.412625 -0.803758 116 64 48
-0.005475 1.41431 -0.804424 116 64 48
0.003331 1.421072 -0.80773 116 65 48
0.010693 1.419089 -0.806507 116 65 48
0.018443 1.419261 -0.806408 116 65 48
0.026319 1.420005 -0.806611 116 65 48
0.033279 1.41584 -0.804276 115 64 47
0.040167 1.411454 -0.801832 114 65 48
0.048024 1.412004 -0.801949 113 64 47
0.057267 1.419106 -0.805462 116 66 49
0.065168 1.419505 -0.805506 117 65 49
0.073722 1.422806 -0.807053 115 64 47
0.078474 1.409014 -0.799756 114 63 46
0.085792 1.406976 -0.798541 109 60 45
0.095021 1.413112 -0.801552 109 60 45
0.102239 1.410639 -0.800107 108 59 44
0.11042 1.412178 -0.800732 106 58 42
0.121392 1.424714 -0.807033 106 57 42
0.132948 1.439015 -0.814235 104 55 40
0.140048 1.435878 -0.812416 103 55 38
0.143924 1.420975 -0.80451 102 53 36
0.154898 1.432578 -0.810279 102 53 36
0.166377 1.445636 -0.81678 102 53 36
0.174711 1.447315 -0.817389 102 53 36
0.18273 1.447993 -0.817462 103 53 36
0.193056 1.456588 -0.821595 103 52 35
0.20296 1.463658 -0.824916 103 52 35
0.210994 1.464593 -0.825048 100 51 34
0.218324 1.463462 -0.82409 99 50 34
0.227255 1.467637 -0.825834 99 50 35
0.239731 1.482909 -0.833253 99 50 35
0.251077 1.494519 -0.838749 100 50 35
0.257155 1.490236 -0.836042 100 51 35
0.267518 1.49905 -0.840026 101 52 35
0.277771 1.50759 -0.843829 101 52 34
0.276976 1.484427 -0.831345 101 52 34
0.292411 1.508261 -0.842906 99 50 35
0.310067 1.538012 -0.857436 99 50 35
0.328081 1.568325 -0.87219 99 50 35
-0.724852 1.141109 -0.722311 159 161 144
-0.719429 1.144712 -0.723576 159 162 145
-0.714103 1.148585 -0.724998 162 163 147
-0.708227 1.151165 -0.725687 163 164 148
-0.703568 1.156769 -0.728101 164 164 150
-0.701673 1.169423 -0.734518 167 165 151
-0.697634 1.176926 -0.738005 166 165 151
-0.69246 1.181656 -0.73992 165 165 152
-0.686517 1.184445 -0.740737 165 166 152
-0.681439 1.189566 -0.742876 166 165 152
-0.676158 1.194239 -0.744764 169 167 153
-0.671036 1.199435 -0.746948 169 167 152
-0.665815 1.204458 -0.749035 169 167 152
-0.660497 1.209307 -0.751025 169 167 152
-0.655459 1.215067 -0.753527 170 168 153
-0.651577 1.224367 -0.758017 171 169 154
-0.646554 1.230503 -0.760728 171 169 154
-0.641065 1.235366 -0.762725 171 169 154
-0.635891 1.241316 -0.765331 173 171 157
-0.630554 1.246899 -0.767731 172 170 156
-0.625133 1.252352 -0.770057 171 169 155
-0.619592 1.257551 -0.772242 173 171 158
-0.614397 1.264033 -0.775142 172 170 157
-0.60858 1.268581 -0.776964 172 170 156
-0.603094 1.274391 -0.779487 172 170 156
-0.597506 1.280002 -0.7819 172 170 156
-0.591469 1.284149 -0.783499 173 170 158
-0.585598 1.289013 -0.785498 174 171 157
-0.580211 1.295838 -0.788583 174 171 156
-0.574522 1.301724 -0.791145 174 171 156
-0.569296 1.309623 -0.79482 173 171 156
-0.563049 1.313691 -0.796376 174 171 156
-0.557095 1.319077 -0.79866 173 170 155
-0.55146 1.325989 -0.801785 174 170 157
-0.545839 1.333214 -0.80508 173 169 157
-0.539636 1.338148 -0.807112 174 171 156
-0.533471 1.343419 -0.80933 174 171 156
-0.52763 1.350393 -0.812483 175 172 157
-0.521635 1.356916 -0.815386 176 172 160
-0.515748 1.364242 -0.818728 176 173 160
-0.509856 1.371859 -0.822228 176 174 160
-0.503883 1.37941 -0.825689 176 174 161
-0.497343 1.384297 -0.827691 177 175 162
-0.490986 1.390397 -0.830356 177 175 162
-0.485288 1.400499 -0.835205 176 174 161
-0.479063 1.408088 -0.83868 177 175 162
-0.472965 1.416838 -0.842784 177 175 162
-0.466775 1.425522 -0.84685 176 174 161
-0.459963 1.43071 -0.849011 176 173 161
-0.452991 1.43512 -0.85075 175 172 159
-0.446999 1.446514 -0.856284 172 170 157
-0.439938 1.451037 -0.858084 170 166 154
-0.432757 1.454926 -0.859541 169 165 153
-0.425571 1.458995 -0.861098 167 163 151
-0.418659 1.465539 -0.863997 163 161 148
-0.410567 1.462602 -0.861768 160 158 145
-0.402946 1.463453 -0.861594 157 155 141
-0.396934 1.479197 -0.869468 153 151 136
-0.393856 1.525051 -0.893583 147 146 129
-0.386475 1.531552 -0.896446 142 143 125
-0.3747 1.490959 -0.873936 140 140 122
-0.365804 1.478505 -0.866616 134 133 115
-0.358884 1.488567 -0.871425 102 98 86
-0.351283 1.490958 -0.872108 51 47 38
-0.343924 1.496995 -0.874755 33 29 23
-0.336729 1.506382 -0.879201 26 23 17
-0.330341 1.530552 -0.891575 21 21 14
-0.321976 1.52349 -0.887199 19 19 13
-0.313931 1.521198 -0.885389 15 17 10
-0.30589 1.518324 -0.883277 10 13 6
-0.297189 1.497981 -0.871831 10 11 6
-0.288397 1.468741 -0.855652 10 11 6
-0.270664 1.365722 -0.799607 12 11 6
-0.263515 1.362247 -0.797272 10 9 4
-0.25634 1.354013 -0.792409 12 9 4
-0.24931 1.352679 -0.791234 21 13 7
-0.242295 1.35138 -0.790086 38 21 13
-0.235296 1.349077 -0.788412 50 27 17
-0.228229 1.359822 -0.793684 56 27 15
-0.221011 1.373615 -0.800576 59 29 16
-0.213756 1.381292 -0.804219 71 36 24
-0.206508 1.385041 -0.80578 81 43 30
-0.199284 1.386404 -0.806081 104 62 49
-0.192063 1.38713 -0.806052 113 67 52
-0.184718 1.390815 -0.807598 113 67 51
-0.177455 1.391616 -0.807623 112 66 50
-0.170213 1.391682 -0.807267 112 66 50
-0.162804 1.394722 -0.808492 111 65 49
-0.155688 1.392167 -0.806766 112 65 49
-0.148179 1.395996 -0.808423 113 66 50
-0.140809 1.397135 -0.808667 114 67 49
-0.134218 1.38757 -0.803267 116 69 51
-0.126966 1.387406 -0.802842 116 67 51
-0.11959 1.388573 -0.803128 116 67 52
-0.112039 1.391419 -0.804307 115 66 50
-0.105009 1.388388 -0.802397 116 67 50
-0.097598 1.389315 -0.802583 115 66 49
-0.090028 1.391518 -0.803448 116 67 50
-0.082734 1.390915 -0.802845 115 66 49
-0.075702 1.388001 -0.801035 115 66 49
-0.067221 1.397052 -0.805528 115 66 49
-0.059038 1.402884 -0.808335 114 65 48
-0.05107 1.40651 -0.809988 116 65 48
-0.042886 1.41129 -0.812255 116 64 49
-0.036225 1.405006 -0.808717 116 64 48
-0.028979 1.402973 -0.807423 117 65 49
-0.022106 1.398551 -0.804883 118 65 49
-0.015105 1.395107 -0.802865 118 65 48
-0.007215 1.397156 -0.803738 116 64 48
0.000931 1.400462 -0.805277 116 65 48
0.009108 1.403635 -0.806751 115 64 47
0.017121 1.405614 -0.807606 116 65 48
0.024333 1.403111 -0.806117 116 65 48
0.031036 1.398022 -0.803278 116 65 48
0.038858 1.398777 -0.803506 114 64 47
0.04663 1.399173 -0.80355 113 65 47
0.053191 1.393697 -0.800523 115 64 47
0.061506 1.396609 -0.801889 116 65 48
0.069018 1.395687 -0.801249 115 64 47
0.076339 1.393926 -0.80017 114 63 46
0.083705 1.392423 -0.799225 114 63 46
0.091453 1.392586 -0.799149 111 62 47
0.100361 1.397523 -0.801566 109 60 45
0.107764 1.396195 -0.800701 106 57 41
0.115923 1.397929 -0.801429 106 57 41
0.123793 1.398518 -0.801549 105 56 41
0.132522 1.402391 -0.803375 104 55 40
0.142016 1.409008 -0.806621 104 55 38
0.14831 1.403854 -0.803704 102 53 36
0.15969 1.417096 -0.810375 101 52 36
0.165083 1.409081 -0.805932 101 52 35
0.176539 1.422267 -0.81253 100 51 34
0.188427 1.436592 -0.819695 100 51 34
0.199057 1.446441 -0.824496 101 52 35
0.20709 1.447722 -0.824804 101 52 34
0.214045 1.445742 -0.823387 101 52 34
0.223489 1.45187 -0.82616 101 52 36
0.232869 1.457859 -0.828826 100 51 34
0.238486 1.45248 -0.825549 99 50 34
0.250435 1.466506 -0.832321 99 50 35
0.257475 1.465921 -0.831466 99 50 35
0.264358 1.465191 -0.8305 100 51 34
0.272939 1.469659 -0.832195 100 51 33
0.28268 1.477607 -0.83565 100 51 36
0.291903 1.484215 -0.83837 100 51 36
0.297846 1.481931 -0.836452 100 51 36
-0.724428 1.138561 -0.728223 159 160 146
-0.719549 1.143453 -0.730239 158 161 146
-0.71459 1.148226 -0.73219 161 162 146
-0.7101 1.154219 -0.734844 162 163 147
-0.706433 1.162359 -0.738733 162 163 149
-0.701788 1.168221 -0.741312 165 163 150
-0.69697 1.173756 -0.743704 163 164 150
-0.692212 1.179554 -0.746247 164 165 151
-0.686752 1.18362 -0.747799 165 166 152
-0.68182 1.189158 -0.750195 165 165 151
-0.676645 1.194149 -0.75228 167 165 151
-0.670791 1.197366 -0.753353 168 166 151
-0.665964 1.203502 -0.756093 168 166 151
-0.662363 1.213266 -0.760897 169 167 152
-0.656906 1.21792 -0.762791 170 168 153
-0.651389 1.222492 -0.764639 170 168 155
-0.646081 1.22778 -0.766895 170 168 153
-0.641571 1.235627 -0.770601 169 167 152
-0.636248 1.24116 -0.772995 171 169 155
-0.630328 1.244943 -0.774399 170 168 153
-0.624614 1.249459 -0.776218 172 170 156
-0.619959 1.257556 -0.780059 172 170 157
-0.614346 1.262688 -0.782226 172 170 157
-0.608612 1.267541 -0.784236 171 169 155
-0.60306 1.27315 -0.786671 171 169 155
-0.597723 1.279676 -0.789621 171 169 154
-0.592074 1.285269 -0.792046 174 170 158
-0.586259 1.290416 -0.79422 173 170 157
-0.580201 1.294791 -0.795962 174 171 156
-0.575199 1.303355 -0.800049 173 170 155
-0.569206 1.30832 -0.80212 172 169 154
-0.563009 1.312618 -0.803818 174 171 156
-0.557003 1.317824 -0.806025 172 169 154
-0.55161 1.325783 -0.809765 172 169 157
-0.545875 1.332574 -0.812852 173 170 157
-0.539567 1.337088 -0.814671 173 170 155
-0.533541 1.343032 -0.817285 175 172 157
-0.527749 1.350289 -0.820627 175 171 159
-0.522037 1.358225 -0.824344 175 172 159
-0.515955 1.364699 -0.827248 174 172 159
-0.509773 1.370946 -0.830024 175 173 160
-0.503667 1.377857 -0.833168 175 173 160
-0.497511 1.384821 -0.836339 175 173 160
-0.491097 1.390705 -0.838912 176 174 161
-0.485415 1.400989 -0.843913 176 174 161
-0.478889 1.406927 -0.846513 175 173 160
-0.472373 1.413226 -0.849312 175 173 160
-0.466564 1.424244 -0.854708 175 172 159
-0.459723 1.429305 -0.856822 173 171 158
-0.453292 1.437364 -0.860585 172 170 157
-0.447258 1.448664 -0.866126 169 167 154
-0.440054 1.452355 -0.867487 168 165 153
-0.43289 1.456543 -0.869123 167 163 151
-0.425383 1.458316 -0.869438 165 161 149
-0.414812 1.435372 -0.856229 162 160 147
-0.406282 1.427517 -0.851299 160 158 145
-0.401167 1.449027 -0.862427 155 153 139
-0.396499 1.476698 -0.876907 151 149 134
-0.391052 1.499525 -0.888726 145 145 127
-0.383147 1.499434 -0.888038 134 135 117
-0.364233 1.463055 -0.866979 107 109 90
-0.359235 1.495954 -0.884269 69 69 53
-0.352202 1.50654 -0.889412 40 38 29
-0.336409 1.506143 -0.887987 24 23 18
-0.329826 1.527436 -0.898939 15 17 11
-0.320956 1.511211 -0.889551 12 14 8
-0.313567 1.521109 -0.894328 9 11 6
-0.305782 1.524358 -0.895508 8 10 5
-0.297544 1.516845 -0.890873 8 10 5
-0.256072 1.366409 -0.807063 6 8 3
-0.248858 1.352437 -0.799066 6 8 3
-0.241821 1.348738 -0.796616 9 9 2
-0.234821 1.345891 -0.794635 18 13 4
-0.227872 1.340063 -0.79106 33 19 10
-0.220899 1.340906 -0.79108 48 25 15
-0.213868 1.344375 -0.792518 55 27 16
-0.206299 1.369534 -0.805601 59 29 17
-0.198983 1.376373 -0.808851 67 32 21
-0.192057 1.369306 -0.80465 90 48 36
-0.18483 1.371823 -0.805597 105 61 47
-0.177522 1.37548 -0.807161 112 66 51
-0.170185 1.378806 -0.808554 111 65 51
-0.163013 1.37837 -0.807942 111 65 50
-0.155848 1.377761 -0.807245 112 65 49
-0.148313 1.382823 -0.809589 111 64 48
-0.141531 1.376279 -0.80574 112 65 49
-0.134307 1.376388 -0.805454 113 66 49
-0.127117 1.375933 -0.804877 115 66 50
-0.119582 1.379426 -0.806415 115 66 51
-0.112315 1.379447 -0.806108 116 67 52
-0.105289 1.37685 -0.804417 116 67 51
-0.098023 1.376748 -0.804063 116 67 50
-0.090879 1.375393 -0.803052 116 67 50
-0.083716 1.374212 -0.802144 115 66 49
-0.076383 1.374453 -0.802001 114 65 49
-0.068834 1.376303 -0.802723 113 64 49
-0.060846 1.381297 -0.805125 114 65 49
-0.054007 1.377175 -0.802688 116 65 49
-0.04662 1.377197 -0.802464 116 64 49
-0.038021 1.385472 -0.806632 116 63 49
-0.030933 1.382963 -0.805078 116 63 49
-0.02373 1.381254 -0.803959 116 63 49
-0.016203 1.38156 -0.803917 117 64 48
-0.008558 1.382452 -0.804194 116 64 48
-0.00043 1.385993 -0.805882 116 65 48
0.007906 1.390388 -0.808029 115 64 47
0.013748 1.380775 -0.802754 115 64 47
0.020868 1.378425 -0.801337 116 65 48
0.027815 1.375229 -0.799477 115 64 47
0.035139 1.374028 -0.798678 114 64 47
0.043784 1.379278 -0.801301 113 64 47
0.051711 1.380774 -0.801937 114 64 47
0.05732 1.371404 -0.79682 115 64 47
0.065492 1.374044 -0.798065 115 64 47
0.073579 1.376145 -0.799022 114 63 45
0.080647 1.37375 -0.797597 114 63 46
0.088061 1.372907 -0.796992 113 62 46
0.096521 1.376409 -0.79868 113 62 46
0.106411 1.385514 -0.803323 111 61 43
0.113785 1.384379 -0.802542 108 58 41
0.121266 1.383757 -0.802024 107 57 40
0.129433 1.385805 -0.802905 106 56 39
0.137672 1.388121 -0.803914 104 55 39
0.146264 1.391719 -0.805584 102 53 38
0.153333 1.389898 -0.804376 102 53 38
0.163061 1.397527 -0.808135 101 52 36
0.171738 1.401441 -0.809911 100 51 34
0.179843 1.403463 -0.810665 99 50 33
0.186244 1.39999 -0.808498 100 51 34
0.19901 1.417441 -0.817328 99 51 33
0.208786 1.42501 -0.820918 100 51 34
0.214503 1.419864 -0.817783 101 52 35
0.225504 1.431409 -0.823398 100 52 34
0.233261 1.433023 -0.823753 101 52 35
0.240254 1.432575 -0.82299 100 51 36
0.250561 1.442189 -0.827474 99 50 35
0.259032 1.446493 -0.829131 99 50 33
0.269631 1.457078 -0.834039 98 49 34
0.278284 1.462191 -0.836037 99 50 35
0.286101 1.465156 -0.83687 99 50 35
0.300762 1.487217 -0.847641 99 50 35
-0.724003 1.135997 -0.734132 157 159 143
-0.720133 1.143272 -0.737556 158 159 145
-0.715073 1.147841 -0.739402 159 160 144
-0.711156 1.155257 -0.742908 161 162 147
-0.705803 1.159283 -0.744441 162 163 149
-0.700695 1.163976 -0.746365 164 164 151
-0.696538 1.171167 -0.74974 163 164 150
-0.692103 1.177795 -0.752787 163 164 150
-0.687066 1.182985 -0.755001 164 165 151
-0.682107 1.188482 -0.757394 166 164 151
-0.677071 1.193879 -0.75973 166 164 150
-0.672782 1.201444 -0.763317 164 164 150
-0.667927 1.207606 -0.766094 166 164 150
-0.662692 1.212826 -0.768328 168 166 152
-0.656892 1.216524 -0.769688 169 167 154
-0.651223 1.220667 -0.771306 168 166 153
-0.646648 1.228163 -0.774849 169 167 153
-0.641677 1.234649 -0.777811 168 166 151
-0.635902 1.238809 -0.77944 169 167 152
-0.629987 1.24261 -0.780867 171 169 154
-0.624644 1.248328 -0.783389 171 169 154
-0.620261 1.257336 -0.787788 171 169 156
-0.614799 1.263016 -0.790287 170 168 155
-0.608969 1.267597 -0.792159 171 169 156
-0.603852 1.274766 -0.795504 170 168 155
-0.597998 1.279544 -0.797488 171 169 154
-0.592468 1.285616 -0.800207 172 169 156
-0.586382 1.289822 -0.801868 172 168 155
-0.580768 1.29591 -0.804596 171 168 153
-0.575045 1.301776 -0.807196 172 169 154
-0.569206 1.307367 -0.809641 172 169 154
-0.562996 1.311649 -0.811346 173 169 156
-0.557594 1.319379 -0.814998 171 168 153
-0.551885 1.326102 -0.818079 170 168 155
-0.545726 1.331134 -0.820206 171 169 156
-0.539982 1.338169 -0.82346 172 169 156
-0.533809 1.343535 -0.825775 173 170 155
-0.527677 1.349293 -0.828309 172 170 157
-0.522164 1.358218 -0.83262 173 171 158
-0.515994 1.364334 -0.835352 172 170 157
-0.510122 1.372204 -0.839066 174 172 159
-0.503927 1.37877 -0.842048 174 172 159
-0.497678 1.385343 -0.845033 174 172 159
-0.491902 1.394812 -0.849634 174 172 159
-0.485356 1.400439 -0.852088 175 173 160
-0.478898 1.40684 -0.854973 174 171 159
-0.47269 1.415078 -0.858881 174 172 159
-0.465972 1.420611 -0.861281 175 172 159
-0.459974 1.431062 -0.866416 172 170 157
-0.453463 1.43876 -0.870018 170 167 155
-0.446584 1.444392 -0.872471 167 165 152
-0.440126 1.453376 -0.876784 166 164 151
-0.433301 1.460251 -0.879926 164 161 148
-0.42569 1.4615 -0.879952 163 159 147
-0.414598 1.434591 -0.864402 159 157 144
-0.406339 1.42912 -0.860736 157 155 142
-0.400105 1.440964 -0.866646 155 153 139
-0.394352 1.458335 -0.875602 151 149 134
-0.387057 1.462346 -0.877181 146 147 130
-0.369645 1.440663 -0.863988 102 104 85
-0.358971 1.495862 -0.893133 47 48 36
-0.351801 1.504892 -0.897478 36 36 29
-0.338166 1.537728 -0.914274 13 15 10
-0.320325 1.506058 -0.895706 7 9 4
-0.312329 1.503608 -0.89378 8 10 5
-0.305053 1.516633 -0.900329 7 9 4
-0.297036 1.514145 -0.898395 8 10 5
-0.288532 1.496433 -0.888153 7 9 4
-0.280841 1.500403 -0.88977 6 8 3
-0.241349 1.349581 -0.805053 5 7 2
-0.234338 1.343132 -0.801093 6 7 2
-0.227387 1.337466 -0.797571 9 8 2
-0.220526 1.329403 -0.792758 21 13 6
-0.213616 1.328532 -0.791862 38 19 12
-0.206665 1.329676 -0.792068 47 24 15
-0.199644 1.332759 -0.793333 53 26 16
-0.192125 1.349456 -0.801983 59 28 16
-0.184692 1.359375 -0.806959 66 31 19
-0.177409 1.363464 -0.808782 81 42 30
-0.170186 1.365366 -0.809428 102 59 46
-0.162998 1.366147 -0.809474 106 62 48
-0.155927 1.364741 -0.808348 110 64 48
-0.149032 1.360732 -0.805824 112 65 49
-0.141611 1.364645 -0.80759 112 64 48
-0.134448 1.3645 -0.807172 111 63 47
-0.127231 1.364912 -0.807064 113 64 49
-0.119789 1.367746 -0.808272 114 65 50
-0.11232 1.370424 -0.809402 114 65 50
-0.105149 1.36962 -0.808665 114 65 50
-0.09818 1.366803 -0.806853 114 65 48
-0.091099 1.365171 -0.805689 115 66 49
-0.0841 1.362848 -0.804163 116 67 51
-0.077332 1.358665 -0.801646 115 66 51
-0.070022 1.359094 -0.801621 115 66 51
-0.062407 1.36173 -0.802791 114 65 50
-0.055319 1.360119 -0.801686 115 64 49
-0.047835 1.361336 -0.802109 115 63 49
-0.040004 1.364742 -0.803717 114 62 48
-0.032297 1.366964 -0.804696 115 63 49
-0.025027 1.366123 -0.804037 115 63 49
-0.017406 1.367399 -0.804524 115 63 49
-0.009905 1.367768 -0.80453 115 63 49
-0.002944 1.364887 -0.8028 114 63 49
0.003926 1.361574 -0.800845 114 64 48
0.011587 1.362676 -0.801264 116 65 48
0.019141 1.363067 -0.801307 116 65 48
0.026274 1.361191 -0.80014 115 64 47
0.033972 1.362177 -0.80051 112 62 45
0.041931 1.36431 -0.801497 112 63 46
0.049239 1.363198 -0.800748 113 63 46
0.055751 1.358425 -0.798041 114 63 46
0.063231 1.358208 -0.797772 114 63 44
0.071279 1.360471 -0.798831 114 63 45
0.078255 1.358022 -0.797364 114 63 46
0.085837 1.358225 -0.797313 113 62 45
0.094731 1.363797 -0.800128 112 61 44
0.103303 1.367861 -0.802128 111 60 42
0.112343 1.37362 -0.805025 110 59 41
0.11869 1.36888 -0.802298 110 58 41
0.125685 1.366841 -0.801004 109 57 40
0.13473 1.372509 -0.803813 107 56 39
0.143229 1.376091 -0.805489 105 54 37
0.150208 1.374288 -0.804272 104 54 37
0.157911 1.375202 -0.804486 102 53 37
0.168045 1.384511 -0.809156 101 52 35
0.173563 1.378236 -0.805488 100 51 34
0.181979 1.381886 -0.807088 100 51 34
0.192728 1.393146 -0.812712 100 51 35
0.198977 1.38997 -0.810616 99 50 34
0.211216 1.405839 -0.818624 99 50 34
0.2202 1.411453 -0.821136 99 50 33
0.228789 1.415966 -0.823028 100 51 34
0.236713 1.418632 -0.823901 100 51 34
0.24701 1.428483 -0.828548 100 51 35
0.258028 1.440439 -0.834268 100 51 34
0.264689 1.439918 -0.833332 99 51 33
0.273694 1.446331 -0.836029 99 50 35
0.283904 1.456247 -0.840536 98 49 34
0.275402 1.414785 -0.817861 98 49 34
-0.727365 1.142226 -0.745244 157 159 143
-0.720957 1.143637 -0.745234 159 160 146
-0.715384 1.147022 -0.746395 159 160 145
-0.709974 1.150833 -0.747811 160 161 147
-0.705051 1.155893 -0.749965 161 162 148
-0.699582 1.159672 -0.751369 161 162 148
-0.696984 1.170795 -0.757083 161 162 148
-0.693111 1.178906 -0.761027 161 162 148
-0.686918 1.181125 -0.76152 162 163 149
-0.68206 1.1869 -0.764097 163 164 150
-0.677884 1.194638 -0.76782 163 163 149
-0.673465 1.201896 -0.77126 164 164 151
-0.668538 1.207906 -0.773973 165 163 150
-0.662357 1.210486 -0.77469 167 165 152
-0.656994 1.21545 -0.776796 167 164 152
-0.65181 1.221045 -0.77927 167 165 152
-0.64707 1.228095 -0.782587 168 166 153
-0.641394 1.232479 -0.784358 168 166 152
-0.635556 1.236449 -0.785892 169 167 154
-0.630202 1.242025 -0.788356 169 167 154
-0.626023 1.251518 -0.793081 170 168 155
-0.620773 1.25779 -0.795944 171 169 156
-0.614765 1.261706 -0.797448 170 168 155
-0.609391 1.267862 -0.800244 170 168 155
-0.60375 1.273265 -0.802605 169 167 154
-0.59835 1.279671 -0.805543 169 167 152
-0.592315 1.283977 -0.807274 171 167 154
-0.58713 1.291521 -0.810863 170 167 153
-0.580952 1.295578 -0.812452 171 168 153
-0.575131 1.301111 -0.814888 170 168 153
-0.569511 1.30761 -0.817875 171 168 153
-0.563764 1.313816 -0.820693 171 167 154
-0.557645 1.318703 -0.822759 170 168 155
-0.551769 1.324771 -0.825497 169 167 154
-0.546327 1.332918 -0.829419 170 168 155
-0.540193 1.338338 -0.831786 171 169 155
-0.53384 1.342965 -0.833702 170 168 153
-0.527815 1.349268 -0.836572 171 169 156
-0.521869 1.356208 -0.839801 171 169 156
-0.516184 1.364711 -0.843914 172 170 157
-0.510298 1.372591 -0.847672 173 171 158
-0.50426 1.380057 -0.851193 173 171 158
-0.49859 1.389824 -0.856013 173 171 158
-0.49208 1.395495 -0.858516 172 170 157
-0.485491 1.400986 -0.860917 173 171 158
-0.479002 1.407316 -0.863791 173 169 157
-0.472415 1.413386 -0.866519 174 170 158
-0.465951 1.420533 -0.869853 172 168 156
-0.459736 1.429697 -0.87432 171 167 155
-0.45298 1.435815 -0.877073 169 165 153
-0.446148 1.441778 -0.879738 167 164 152
-0.440217 1.454563 -0.886231 164 162 149
-0.433053 1.459079 -0.888084 163 159 147
-0.425622 1.461809 -0.888939 161 157 145
-0.416427 1.450389 -0.881884 157 154 142
-0.40783 1.442896 -0.877039 155 153 140
-0.399909 1.440591 -0.875105 153 151 138
-0.392704 1.44462 -0.876714 151 149 134
-0.385835 1.452247 -0.880333 146 147 131
-0.377654 1.447066 -0.876815 124 127 109
-0.368973 1.435728 -0.86988 82 85 67
-0.362123 1.444108 -0.873931 46 48 35
-0.357331 1.478866 -0.892644 31 32 25
-0.352327 1.515552 -0.912406 24 26 21
-0.344155 1.512687 -0.910193 22 24 19
-0.337611 1.534198 -0.921509 10 12 7
-0.329885 1.539639 -0.923909 2 4 0
-0.312539 1.515336 -0.909245 9 11 6
-0.304468 1.512281 -0.90697 8 10 5
-0.297986 1.549046 -0.926713 8 10 5
-0.282308 1.567458 -0.935719 7 9 4
-0.27408 1.565949 -0.934314 7 9 4
-0.266338 1.590355 -0.947203 6 8 3
-0.2492 1.520751 -0.90777 5 7 2
-0.226898 1.334482 -0.80388 4 6 1
-0.22006 1.324765 -0.79811 5 7 2
-0.213217 1.320686 -0.79545 9 8 2
-0.206273 1.322498 -0.796031 17 11 4
-0.199395 1.321312 -0.794974 34 19 12
-0.192625 1.31723 -0.792341 48 23 15
-0.185658 1.319082 -0.792968 54 25 15
-0.17777 1.340911 -0.804537 58 26 16
-0.170253 1.350643 -0.809483 65 30 19
-0.163069 1.352404 -0.810075 78 39 27
-0.156072 1.350652 -0.808756 96 55 41
-0.148966 1.350708 -0.808433 108 62 47
-0.141842 1.35089 -0.808189 111 64 48
-0.134841 1.349317 -0.806995 112 63 48
-0.127721 1.349285 -0.806653 112 63 48
-0.120498 1.350313 -0.806897 113 64 49
-0.112617 1.358219 -0.810899 112 63 48
-0.105521 1.357108 -0.809995 113 64 49
-0.098301 1.357192 -0.80975 114 65 49
-0.091319 1.35494 -0.808244 114 65 49
-0.084822 1.348525 -0.804481 114 65 50
-0.07842 1.341758 -0.80054 115 66 51
-0.071272 1.341453 -0.800124 115 66 51
-0.064393 1.338984 -0.79854 114 65 50
-0.056611 1.343263 -0.800634 114 65 50
-0.048615 1.348624 -0.803322 114 64 49
-0.040994 1.350909 -0.804346 112 63 48
-0.03356 1.351683 -0.804558 113 63 48
-0.026528 1.349734 -0.803299 115 63 49
-0.019447 1.348111 -0.802225 114 63 49
-0.01198 1.348794 -0.802409 114 63 49
-0.004684 1.348348 -0.801988 112 63 48
0.00269 1.348278 -0.801777 113 64 46
0.01041 1.349996 -0.802541 113 64 46
0.01738 1.347591 -0.801074 115 65 48
0.024759 1.347335 -0.800778 115 64 47
0.032641 1.349538 -0.801817 114 63 46
0.040847 1.353129 -0.803609 115 64 47
0.048085 1.35192 -0.802803 113 62 45
0.054324 1.346142 -0.799524 113 62 45
0.061478 1.34472 -0.798604 112 61 43
0.068812 1.344141 -0.798138 113 62 44
0.075615 1.341317 -0.796454 113 62 45
0.083026 1.341162 -0.79621 113 62 45
0.092672 1.350142 -0.800901 112 61 44
0.101217 1.354374 -0.803014 111 60 41
0.108594 1.353917 -0.802582 110 59 40
0.115717 1.352574 -0.801659 110 58 40
0.123984 1.35564 -0.803106 111 58 39
0.131947 1.35757 -0.803923 109 56 39
0.139993 1.359831 -0.804901 108 56 39
0.146914 1.358172 -0.803743 106 54 37
0.153899 1.356947 -0.8028 104 53 36
0.160407 1.354309 -0.801071 102 52 35
0.168441 1.357026 -0.802207 102 52 35
0.177819 1.36424 -0.805738 101 52 36
0.184733 1.363489 -0.804948 100 51 36
0.193051 1.367433 -0.806656 100 51 34
0.203769 1.378958 -0.812408 100 51 36
0.217036 1.398187 -0.822261 97 48 33
0.225535 1.4027 -0.824162 98 49 32
0.235252 1.410976 -0.828043 99 50 34
0.246595 1.424069 -0.834466 99 50 35
0.253941 1.425534 -0.83461 101 52 36
0.260998 1.426438 -0.834414 101 52 35
0.268117 1.427799 -0.834426 101 52 36
0.27543 1.429972 -0.834834 99 50 35
0.29856 1.475816 -0.858516 99 50 35
-0.730545 1.131757 -0.747369 155 157 143
-0.72502 1.135161 -0.74854 156 157 143
-0.722616 1.145948 -0.754121 157 158 144
-0.717698 1.150973 -0.756262 159 160 146
-0.712331 1.154988 -0.757805 160 161 147
-0.705502 1.155457 -0.757244 160 161 147
-0.700202 1.159692 -0.758927 160 161 147
-0.698018 1.171898 -0.765339 162 163 149
-0.693404 1.178153 -0.768219 160 161 147
-0.687178 1.180315 -0.768678 162 163 149
-0.682958 1.187815 -0.772296 162 162 149
-0.677748 1.192813 -0.774435 162 163 148
-0.673906 1.201665 -0.778849 162 163 149
-0.668014 1.205017 -0.78002 163 163 150
-0.663251 1.21162 -0.783106 166 164 151
-0.657194 1.214644 -0.784089 167 165 152
-0.652907 1.222903 -0.788148 167 165 152
-0.647444 1.227868 -0.790272 167 165 152
-0.641312 1.230905 -0.791269 167 165 151
-0.635836 1.236016 -0.793482 169 167 154
-0.631112 1.243618 -0.797152 169 167 154
-0.626353 1.25132 -0.800878 169 167 154
-0.620723 1.256393 -0.803068 170 168 155
-0.614961 1.261152 -0.805075 170 168 155
-0.608984 1.265296 -0.806726 169 167 154
-0.603786 1.272236 -0.810004 168 166 153
-0.598403 1.278732 -0.813022 170 168 154
-0.593075 1.285621 -0.816267 169 166 154
-0.587049 1.290153 -0.818144 169 166 151
-0.581165 1.295345 -0.820404 169 167 152
-0.575404 1.301162 -0.823027 168 166 151
-0.569555 1.306818 -0.825555 168 166 152
-0.563543 1.311999 -0.82781 169 167 153
-0.557655 1.317852 -0.830452 168 166 153
-0.551964 1.324737 -0.833688 170 168 155
-0.546222 1.331659 -0.836944 170 168 154
-0.540093 1.337136 -0.839367 170 168 153
-0.533926 1.342639 -0.841806 169 167 153
-0.527938 1.349177 -0.844838 170 168 155
-0.521792 1.355229 -0.84759 170 168 155
-0.516018 1.363344 -0.851524 171 169 156
-0.51013 1.371254 -0.855339 171 169 156
-0.504229 1.379468 -0.859324 172 170 157
-0.498027 1.386472 -0.862616 172 170 157
-0.491765 1.393488 -0.865913 171 169 156
-0.485082 1.398473 -0.868051 171 169 156
-0.478752 1.405738 -0.871489 171 169 156
-0.472441 1.413509 -0.875214 171 168 155
-0.46624 1.422401 -0.879575 169 166 154
-0.459815 1.430376 -0.883412 168 164 152
-0.452867 1.435357 -0.885548 167 164 151
-0.446122 1.442011 -0.888634 166 162 150
-0.439259 1.448246 -0.891483 162 160 147
-0.432954 1.459045 -0.896917 160 156 144
-0.42571 1.463352 -0.898673 159 155 143
-0.41595 1.44754 -0.889056 158 154 142
-0.407813 1.443953 -0.886367 155 153 140
-0.400073 1.44345 -0.885429 152 150 137
-0.392851 1.447618 -0.887133 150 148 133
-0.383889 1.435073 -0.87942 146 147 131
-0.37713 1.443818 -0.883714 126 129 114
-0.368394 1.431854 -0.876354 59 61 48
-0.36195 1.444911 -0.883082 36 37 29
-0.357498 1.484215 -0.904553 26 28 22
-0.352146 1.517007 -0.922342 23 25 20
-0.322078 1.551336 -0.93909 10 12 7
-0.298165 1.564726 -0.944759 8 10 6
-0.290456 1.579568 -0.952453 7 9 5
-0.281693 1.562387 -0.942278 7 9 5
-0.273859 1.577734 -0.950261 6 8 4
-0.265392 1.566221 -0.943276 6 8 3
