ply
format ascii 1.0
comment ---
element vertex 1228
property float x
property float y
property float z
property uchar red
property uchar green
property uchar blue
element face 0
property list uchar uint vertex_indices
end_header
0.523896 1.779745 -0.611071 90 82 69
0.532008 1.773862 -0.609928 90 82 69
0.54016 1.76819 -0.608865 90 83 70
0.548114 1.761929 -0.607604 90 82 69
0.554614 1.751058 -0.60473 91 83 71
0.562984 1.746355 -0.604029 90 82 71
0.569698 1.73651 -0.601525 90 82 69
0.576364 1.726709 -0.599039 91 83 70
0.584309 1.72095 -0.597986 91 83 70
0.592496 1.715961 -0.597212 90 82 69
0.599888 1.708675 -0.595632 89 81 68
0.606667 1.699729 -0.593466 89 83 69
0.614722 1.694534 -0.592639 90 82 69
0.620265 1.682391 -0.589341 90 82 69
0.627793 1.675922 -0.588068 90 82 69
0.63454 1.667421 -0.586071 88 82 68
0.642167 1.661383 -0.584959 88 82 68
0.649494 1.654626 -0.583592 90 82 69
0.65569 1.645042 -0.58121 88 80 68
0.664233 1.641578 -0.581029 88 80 68
0.671312 1.63445 -0.579531 88 80 68
0.678723 1.628245 -0.578364 88 80 67
0.684776 1.618826 -0.576032 88 80 68
0.693024 1.614842 -0.575663 88 80 68
0.698782 1.605014 -0.57317 88 80 67
0.705883 1.598514 -0.571876 88 80 67
0.714714 1.596107 -0.572066 88 80 67
0.718631 1.582584 -0.568192 88 80 67
0.725755 1.576556 -0.567038 88 81 67
0.734216 1.573613 -0.567 88 80 67
0.742191 1.569676 -0.566586 88 80 67
0.746718 1.558433 -0.563468 88 80 67
0.754647 1.554713 -0.563094 88 80 67
0.762871 1.551735 -0.562973 88 80 68
0.770218 1.547063 -0.562204 87 79 68
0.776322 1.540025 -0.560532 88 80 69
0.785217 1.538873 -0.561009 88 80 68
0.788243 1.526121 -0.557152 88 80 68
0.797406 1.525885 -0.557904 88 80 67
0.805073 1.522859 -0.557585 88 79 67
0.811424 1.517498 -0.556358 88 80 65
0.81885 1.514456 -0.555955 89 80 65
0.827992 1.514885 -0.556807 90 81 66
0.832997 1.50775 -0.554789 88 81 65
0.840023 1.504686 -0.554247 87 79 67
0.846702 1.501243 -0.553517 88 79 67
0.865213 1.51953 -0.56089 89 81 68
-0.697369 1.009549 -0.307466 118 114 102
-0.69373 1.012998 -0.308882 119 115 103
-0.690291 1.016964 -0.310442 120 116 104
-0.686111 1.019953 -0.311668 121 117 105
-0.683295 1.025333 -0.313632 123 118 106
-0.68195 1.033338 -0.316412 124 120 108
-0.677351 1.03626 -0.317551 123 119 107
-0.673753 1.041019 -0.319254 126 121 109
-0.668398 1.043028 -0.32006 127 121 109
-0.663952 1.046718 -0.321382 128 122 110
-0.661368 1.053761 -0.323756 127 123 111
-0.65715 1.058205 -0.325282 129 125 113
-0.653556 1.063902 -0.327192 131 125 113
-0.649048 1.068168 -0.328629 131 126 114
-0.644792 1.073026 -0.330241 131 126 114
-0.639561 1.076269 -0.331324 133 129 117
-0.635609 1.081951 -0.333174 132 128 116
-0.630402 1.085461 -0.334319 134 129 117
-0.627037 1.092508 -0.336586 137 131 119
-0.62281 1.098085 -0.338375 138 132 120
-0.617863 1.102406 -0.339755 138 132 119
-0.614306 1.109506 -0.342019 138 132 118
-0.608934 1.113191 -0.343186 139 133 119
-0.603915 1.117631 -0.344591 140 134 120
-0.601338 1.127048 -0.347585 140 136 121
-0.597765 1.134624 -0.349989 142 136 122
-0.591819 1.137445 -0.350873 142 136 122
-0.586847 1.142308 -0.35241 141 136 122
-0.581575 1.146595 -0.353764 141 138 123
-0.577353 1.153172 -0.355852 142 138 123
-0.572354 1.158162 -0.357436 143 139 124
-0.567877 1.164349 -0.359405 145 139 124
-0.563096 1.169945 -0.361189 145 140 125
-0.558702 1.176476 -0.363277 144 140 124
-0.553941 1.182261 -0.365131 144 141 125
-0.54868 1.186954 -0.366641 145 141 126
-0.545187 1.195837 -0.369496 147 141 126
-0.540736 1.202596 -0.371677 147 142 125
-0.535452 1.207436 -0.373252 147 141 127
-0.529723 1.21123 -0.374499 147 141 127
-0.524145 1.215414 -0.375877 148 142 128
-0.519551 1.222101 -0.378062 148 142 128
-0.513714 1.22571 -0.37927 148 142 128
-0.509071 1.232423 -0.381477 149 143 129
-0.505092 1.240987 -0.384284 149 143 129
-0.499973 1.246667 -0.386176 149 143 129
-0.494372 1.25112 -0.387683 150 144 130
-0.488888 1.255937 -0.389313 149 144 130
-0.483992 1.26245 -0.391494 150 145 131
-0.479688 1.270749 -0.394255 149 145 131
-0.474581 1.276907 -0.396338 151 145 131
-0.46906 1.281956 -0.398073 151 145 131
-0.463688 1.287521 -0.399981 153 147 133
-0.458089 1.292494 -0.401708 153 147 133
-0.452981 1.299046 -0.403948 153 147 133
-0.447589 1.304845 -0.405954 154 148 134
-0.441853 1.309665 -0.407654 155 149 135
-0.436542 1.315931 -0.409825 155 149 135
-0.430902 1.321256 -0.411702 155 149 137
-0.425817 1.328533 -0.414213 155 149 137
-0.420215 1.334235 -0.416226 156 150 138
-0.414916 1.341108 -0.418623 156 150 138
-0.409419 1.347458 -0.42086 156 150 138
-0.403494 1.352429 -0.42266 156 150 138
-0.397487 1.357213 -0.424407 156 150 138
-0.390688 1.359154 -0.425245 157 151 139
-0.384245 1.362449 -0.426526 157 151 139
-0.379997 1.374304 -0.430573 157 151 139
-0.377805 1.394691 -0.43738 158 151 139
-0.373939 1.409092 -0.442269 158 152 140
-0.368678 1.418284 -0.445484 159 152 140
-0.362556 1.424178 -0.447643 160 153 141
-0.355004 1.424114 -0.447882 160 153 141
-0.347842 1.425697 -0.448659 161 153 142
-0.341741 1.432043 -0.450983 161 154 142
-0.33631 1.441705 -0.454387 162 154 143
-0.329905 1.44717 -0.456439 163 155 144
-0.323279 1.451775 -0.458219 163 155 144
-0.31804 1.463395 -0.462281 164 156 145
-0.311466 1.468779 -0.464328 164 156 145
-0.306921 1.48492 -0.469874 164 156 145
-0.300595 1.492369 -0.472606 164 156 145
-0.293987 1.498613 -0.474953 164 156 145
-0.287394 1.505237 -0.477431 164 156 144
-0.282041 1.519366 -0.482358 164 156 143
-0.275602 1.527798 -0.485439 163 155 142
-0.269352 1.537848 -0.489055 164 156 143
-0.263011 1.54789 -0.492675 163 155 143
-0.255829 1.553035 -0.494706 163 155 144
-0.250415 1.570412 -0.500738 162 154 143
-0.242978 1.574786 -0.50253 162 154 143
-0.236321 1.585076 -0.506263 161 153 142
-0.230026 1.598782 -0.511122 161 153 142
-0.223144 1.608922 -0.514822 161 153 142
-0.215604 1.614472 -0.517026 160 152 141
-0.208691 1.625733 -0.521108 160 152 141
-0.200942 1.630544 -0.523082 160 152 141
-0.193853 1.641822 -0.527185 159 151 140
-0.187272 1.659014 -0.533241 159 151 140
-0.179898 1.669832 -0.537211 158 150 139
-0.172137 1.677606 -0.540187 158 150 139
-0.164224 1.684475 -0.542871 158 150 139
-0.156569 1.695163 -0.54682 156 148 137
-0.149193 1.710635 -0.552357 156 148 137
-0.141197 1.719751 -0.555804 155 147 136
-0.13331 1.731679 -0.560189 154 146 135
-0.124795 1.735633 -0.561946 153 145 134
-0.117269 1.756724 -0.569378 153 145 134
-0.108888 1.765955 -0.572895 151 144 132
-0.100221 1.771197 -0.575099 151 143 132
-0.091383 1.773731 -0.576409 150 142 131
-0.082948 1.786852 -0.581238 150 142 131
-0.074166 1.793744 -0.584007 148 140 129
-0.065543 1.807954 -0.589216 147 139 128
-0.056718 1.819686 -0.593611 144 136 125
-0.047737 1.829286 -0.597304 143 135 124
-0.038632 1.83696 -0.600364 141 133 122
-0.02944 1.843486 -0.603048 140 131 119
-0.020191 1.85084 -0.606015 139 129 118
-0.010873 1.861123 -0.609967 136 126 116
-0.001458 1.870838 -0.613739 134 124 114
0.008012 1.87567 -0.615885 131 122 110
0.017587 1.884904 -0.619511 128 120 107
0.027182 1.890176 -0.621817 126 116 104
0.036844 1.896114 -0.624354 124 114 102
0.046779 1.909686 -0.62946 121 112 100
0.056609 1.915962 -0.632126 117 108 96
0.066518 1.922643 -0.634935 114 106 93
0.076509 1.929684 -0.637873 111 103 90
0.086604 1.937404 -0.641048 108 101 87
0.096511 1.940017 -0.64251 105 98 84
0.106382 1.941502 -0.643597 102 95 81
0.116489 1.946497 -0.645875 100 93 79
0.1269 1.955232 -0.649424 98 91 77
0.137644 1.967339 -0.654123 96 90 76
0.148184 1.975181 -0.657391 95 89 75
0.15897 1.985022 -0.661346 94 88 75
0.169626 1.992181 -0.664402 92 86 72
0.179768 1.992882 -0.665275 88 83 69
0.189611 1.990336 -0.66505 85 80 66
0.199688 1.990274 -0.665675 80 77 62
0.209845 1.990885 -0.666534 78 74 59
0.218809 1.980629 -0.663696 77 71 57
0.228374 1.976343 -0.662894 75 68 54
0.238046 1.973208 -0.662489 75 67 54
0.247792 1.970821 -0.662344 77 69 56
0.257418 1.96762 -0.661926 77 69 56
0.267049 1.964597 -0.661573 78 70 57
0.276273 1.9588 -0.660275 80 72 59
0.285478 1.953187 -0.659042 81 73 60
0.294662 1.947703 -0.657858 82 74 62
0.303744 1.94183 -0.656544 82 74 63
0.31233 1.933131 -0.654261 82 74 62
0.321109 1.926027 -0.65253 84 76 65
0.330291 1.921604 -0.651727 84 76 65
0.339429 1.917078 -0.650893 84 76 63
0.347861 1.908798 -0.648768 85 77 64
0.356437 1.901638 -0.647032 85 77 64
0.365368 1.896613 -0.64604 86 78 65
0.374156 1.891011 -0.644854 86 78 65
0.382788 1.884804 -0.643463 87 79 66
0.391883 1.881039 -0.642926 85 77 65
0.40121 1.878451 -0.642806 85 77 65
0.409838 1.872634 -0.641569 85 78 65
0.418603 1.867585 -0.640606 85 78 65
0.426188 1.857432 -0.637867 86 78 66
0.434235 1.849606 -0.635945 86 78 66
0.441933 1.840526 -0.633588 87 79 66
0.449334 1.830485 -0.630898 87 79 67
0.457894 1.825435 -0.629963 87 79 67
0.467034 1.822773 -0.629875 87 80 67
0.475763 1.818493 -0.629227 87 80 67
0.481231 1.801826 -0.624224 87 80 67
0.485265 1.780324 -0.617512 88 80 67
0.49774 1.790456 -0.621968 88 80 67
0.507456 1.790155 -0.622756 88 80 67
0.515145 1.782577 -0.620979 89 81 68
0.523537 1.777584 -0.620125 89 81 68
0.531966 1.77276 -0.61934 89 81 68
0.539806 1.766004 -0.617877 90 82 69
0.547262 1.758094 -0.616009 90 82 69
0.554532 1.749719 -0.613981 89 81 70
0.561375 1.740144 -0.611529 90 82 70
0.568625 1.732022 -0.609601 89 81 68
0.575482 1.722833 -0.607296 89 81 68
0.583714 1.71795 -0.60654 90 82 69
0.591789 1.712623 -0.605633 89 81 68
0.599824 1.707218 -0.604705 89 81 68
0.607375 1.700464 -0.603298 89 81 69
0.614789 1.693403 -0.601785 89 81 70
0.620911 1.682844 -0.599011 89 81 70
0.628663 1.676941 -0.597924 89 81 69
0.634207 1.665144 -0.594703 89 82 69
0.642016 1.659591 -0.593749 89 80 67
0.65045 1.655715 -0.59341 90 82 69
0.657241 1.647612 -0.591533 88 80 68
0.665069 1.642268 -0.590663 89 81 69
0.671512 1.633515 -0.588547 88 80 68
0.678846 1.627109 -0.587287 87 79 67
0.687341 1.623614 -0.587094 88 80 67
0.6918 1.610475 -0.583351 88 80 67
0.698591 1.603133 -0.581731 88 80 67
0.705338 1.595826 -0.580115 87 80 67
0.712343 1.589256 -0.578761 87 80 66
0.717943 1.579638 -0.576266 87 80 66
0.726958 1.577871 -0.57667 87 80 66
0.734974 1.573932 -0.576256 87 80 66
0.741939 1.567802 -0.57501 87 80 66
0.749929 1.564038 -0.574628 87 80 67
0.755137 1.554492 -0.572064 88 80 67
0.76337 1.551556 -0.571947 88 80 67
0.770851 1.547189 -0.571269 88 80 67
0.778155 1.542633 -0.570492 87 80 67
0.78153 1.530336 -0.566771 87 79 67
0.791386 1.531356 -0.568026 87 79 67
0.798407 1.526875 -0.567175 87 79 66
0.80491 1.52161 -0.56599 87 78 65
0.811692 1.517143 -0.565065 86 79 64
0.82024 1.516296 -0.565469 88 79 64
0.827011 1.51228 -0.56463 87 79 64
0.833723 1.508417 -0.563804 86 79 63
0.840772 1.505443 -0.563268 86 79 63
0.845696 1.498839 -0.561304 86 79 65
0.848381 1.488511 -0.557873 87 79 66
-0.700143 1.012532 -0.314434 119 115 103
-0.694235 1.012398 -0.314722 118 114 102
-0.69138 1.017239 -0.316593 120 116 104
-0.687844 1.021217 -0.318163 121 117 105
-0.684504 1.025717 -0.319879 121 117 105
-0.681955 1.031717 -0.322059 122 118 106
-0.679037 1.037347 -0.324097 123 119 107
-0.673953 1.039607 -0.32502 124 120 108
-0.670515 1.04478 -0.326866 126 121 109
-0.666079 1.048468 -0.32821 128 122 110
-0.660465 1.050308 -0.328934 129 123 109
-0.658433 1.05846 -0.33169 129 124 112
-0.653751 1.062227 -0.333003 131 125 113
-0.650281 1.068278 -0.335042 132 125 113
-0.646627 1.074187 -0.33702 132 127 114
-0.641543 1.077688 -0.338201 132 127 114
-0.637875 1.083883 -0.340245 132 128 115
-0.632881 1.087794 -0.341535 133 129 115
-0.627775 1.0916 -0.342781 136 130 117
-0.622907 1.095945 -0.344193 137 131 118
-0.619505 1.103186 -0.34654 138 132 118
-0.614764 1.107997 -0.34809 139 133 119
-0.609583 1.112037 -0.349384 139 133 119
-0.604275 1.115891 -0.350614 139 133 119
-0.601254 1.12439 -0.353352 141 135 121
-0.598369 1.133329 -0.356231 141 135 121
-0.593341 1.138034 -0.357733 142 136 122
-0.58759 1.141292 -0.358764 142 136 122
-0.581986 1.144881 -0.359903 142 137 122
-0.577025 1.149866 -0.361499 143 138 123
-0.57319 1.157347 -0.363908 144 138 124
-0.568168 1.162344 -0.365513 145 139 123
-0.563594 1.168389 -0.367462 146 140 123
-0.559329 1.175208 -0.369667 145 139 123
-0.553948 1.179579 -0.371081 144 141 124
-0.549688 1.186574 -0.373352 144 141 124
-0.544065 1.190477 -0.374625 147 141 125
-0.540643 1.199626 -0.377608 147 141 125
-0.535683 1.205231 -0.379446 146 141 125
-0.530542 1.21046 -0.381168 146 141 127
-0.52519 1.215222 -0.382744 147 141 126
-0.51977 1.219854 -0.384286 147 141 126
-0.514408 1.224673 -0.385895 148 142 127
-0.509193 1.229919 -0.38765 148 142 127
-0.505616 1.239521 -0.390829 148 142 128
-0.501116 1.246859 -0.39328 149 143 129
-0.495446 1.251159 -0.394749 149 143 129
-0.489525 1.25481 -0.396016 149 144 130
-0.485867 1.264778 -0.399345 147 144 131
-0.480519 1.270187 -0.401199 149 144 132
-0.475 1.275183 -0.402926 151 145 131
-0.469597 1.280582 -0.404792 151 145 131
-0.464101 1.285789 -0.406604 152 146 132
-0.458743 1.291493 -0.408584 152 146 132
-0.453674 1.298179 -0.410893 153 147 133
-0.448247 1.303887 -0.412891 154 148 134
-0.442194 1.307719 -0.414285 154 148 134
-0.436479 1.312685 -0.416056 154 148 135
-0.432163 1.322319 -0.419359 154 148 135
-0.426825 1.328804 -0.421641 155 149 137
-0.421429 1.335243 -0.423917 155 149 137
-0.415594 1.340316 -0.425754 155 149 137
-0.410482 1.348035 -0.428463 156 150 137
-0.404475 1.352762 -0.430202 156 150 138
-0.398063 1.35611 -0.431497 156 150 138
-0.39156 1.359174 -0.432705 156 150 138
-0.385182 1.362755 -0.434089 157 151 138
-0.380726 1.373832 -0.437937 157 151 139
-0.37715 1.388755 -0.443053 157 151 139
-0.37125 1.394866 -0.44529 158 151 140
-0.364797 1.398893 -0.44685 158 152 140
-0.359883 1.409479 -0.45057 159 152 141
-0.354623 1.418975 -0.45394 160 153 141
-0.347988 1.422795 -0.455454 161 153 142
-0.342042 1.429812 -0.458025 161 154 142
-0.336626 1.439516 -0.461487 162 154 143
-0.330208 1.444913 -0.463539 162 155 143
-0.324328 1.453088 -0.466513 163 155 144
-0.319057 1.464605 -0.470596 163 155 144
-0.313114 1.473254 -0.473742 164 156 145
-0.307413 1.483539 -0.477436 164 156 145
-0.30103 1.490684 -0.480101 164 156 145
-0.294866 1.499352 -0.483277 164 156 145
-0.288564 1.507672 -0.486345 164 156 143
-0.28248 1.517671 -0.489975 163 155 142
-0.276041 1.526089 -0.493091 163 155 142
-0.269117 1.531996 -0.495382 163 155 143
-0.263517 1.546572 -0.500552 162 154 143
-0.256918 1.555527 -0.503868 163 155 144
-0.250697 1.567565 -0.508215 162 155 143
-0.244094 1.577717 -0.511945 160 154 142
-0.238371 1.594894 -0.518016 161 154 142
-0.230366 1.596197 -0.518821 161 153 142
-0.223312 1.604946 -0.522107 160 152 141
-0.216923 1.619701 -0.5274 160 152 141
-0.209966 1.630847 -0.5315 160 152 141
-0.20235 1.637128 -0.533988 159 151 140
-0.194284 1.639785 -0.535272 159 151 140
-0.188459 1.664171 -0.543815 159 151 140
-0.180385 1.668238 -0.545583 158 150 139
-0.172362 1.673229 -0.547667 158 150 139
-0.165129 1.68754 -0.552873 157 149 138
-0.158199 1.707053 -0.559831 156 148 137
-0.149815 1.710652 -0.56147 155 147 136
-0.142382 1.727396 -0.567521 154 146 135
-0.133901 1.731426 -0.569317 154 146 135
-0.125145 1.731771 -0.56988 153 145 134
-0.11772 1.75429 -0.577899 152 144 133
-0.109379 1.764147 -0.581673 151 143 132
-0.100548 1.766123 -0.582803 150 143 131
-0.091852 1.771437 -0.58506 150 142 131
-0.083167 1.778251 -0.58783 148 140 129
-0.074493 1.787181 -0.591319 147 139 128
-0.065739 1.796301 -0.594881 144 136 125
-0.056787 1.801147 -0.597006 143 134 123
-0.048182 1.824719 -0.605468 141 132 121
-0.039138 1.835263 -0.609537 139 130 119
-0.029936 1.840827 -0.611929 139 129 118
-0.020693 1.848542 -0.615056 136 126 116
-0.011381 1.859342 -0.619236 135 125 115
-0.00196 1.870731 -0.623626 132 123 111
0.007523 1.876219 -0.626021 129 121 108
0.017073 1.882667 -0.628749 128 118 106
0.026693 1.889495 -0.631612 124 114 102
0.036447 1.899174 -0.635455 122 112 100
0.046224 1.906228 -0.638412 118 108 97
0.056104 1.914269 -0.641713 114 104 92
0.066023 1.921199 -0.644643 111 103 90
0.075956 1.926816 -0.647133 107 100 86
0.086111 1.935903 -0.650817 104 97 83
0.096022 1.938544 -0.652304 101 94 80
0.105664 1.935939 -0.652 99 93 78
0.115891 1.943141 -0.655061 97 91 76
0.126244 1.951102 -0.658392 95 88 74
0.136634 1.958426 -0.661514 93 86 73
0.147293 1.968253 -0.665505 92 86 72
0.158223 1.980152 -0.670221 90 85 71
0.16877 1.986198 -0.672933 88 82 68
0.178913 1.987099 -0.673881 83 78 64
0.188936 1.986586 -0.674348 82 77 63
0.19908 1.987236 -0.675222 76 73 58
0.209291 1.98838 -0.676273 73 69 54
0.21908 1.985546 -0.675954 71 65 51
0.227828 1.973878 -0.672581 71 64 51
0.237421 1.970079 -0.671934 71 64 51
0.247123 1.967362 -0.671668 73 65 52
0.256773 1.964362 -0.671308 75 67 54
0.266227 1.960048 -0.670496 76 68 55
0.275757 1.956495 -0.669953 77 69 56
0.284865 1.950184 -0.668455 78 70 57
0.293968 1.94417 -0.667065 79 71 59
0.302837 1.936944 -0.665254 81 73 62
0.311584 1.929304 -0.663302 81 73 61
0.32062 1.923777 -0.662092 82 74 63
0.329733 1.918933 -0.661126 83 76 64
0.338717 1.913519 -0.659965 83 75 62
0.347468 1.907018 -0.658428 84 76 63
0.356048 1.899846 -0.65666 84 76 63
0.365034 1.895077 -0.65574 85 77 64
0.374168 1.891198 -0.65514 84 76 63
0.382761 1.884715 -0.65363 85 77 64
0.391545 1.879367 -0.652525 84 76 64
0.400132 1.87323 -0.651147 84 76 64
0.408961 1.868389 -0.650233 84 76 64
0.418099 1.865053 -0.64986 84 76 64
0.426366 1.857901 -0.648142 84 76 64
0.433871 1.847653 -0.64533 84 77 64
0.441186 1.836926 -0.642352 85 78 65
0.449275 1.829738 -0.640635 85 78 65
0.457811 1.824538 -0.639632 85 78 66
0.467146 1.8226 -0.6398 85 78 66
0.475946 1.818531 -0.639218 85 78 66
0.482857 1.8073 -0.636084 85 78 66
0.486606 1.784567 -0.628834 86 79 66
0.497482 1.78869 -0.631204 86 79 66
0.506634 1.786327 -0.631264 87 79 66
0.514852 1.780628 -0.630135 88 80 67
0.523035 1.774882 -0.628997 87 79 66
0.531593 1.770486 -0.628354 88 80 67
0.539851 1.765109 -0.627367 88 80 67
0.54675 1.755327 -0.624795 89 81 68
0.554057 1.747065 -0.622777 88 80 69
0.560652 1.736698 -0.620001 89 81 69
0.568668 1.730965 -0.618912 88 80 68
0.577001 1.726256 -0.618203 89 81 68
0.584492 1.719033 -0.616586 88 80 67
0.59154 1.710603 -0.614535 89 81 69
0.599434 1.70477 -0.613437 89 81 70
0.607656 1.699929 -0.612709 88 80 68
0.61319 1.687532 -0.609218 89 81 70
0.620503 1.680331 -0.607633 88 80 69
0.629091 1.676706 -0.607368 88 80 69
0.634531 1.664601 -0.603984 88 80 69
0.642149 1.65851 -0.602818 87 79 66
0.649668 1.652224 -0.601582 88 80 67
0.658002 1.64811 -0.601152 88 80 68
0.664262 1.638757 -0.598782 88 80 68
0.671109 1.631038 -0.597015 88 80 69
0.677596 1.622563 -0.594962 87 79 67
0.685063 1.616614 -0.593846 87 79 66
0.692575 1.610862 -0.5928 87 79 66
0.698747 1.602042 -0.590599 87 79 66
0.705687 1.595189 -0.589125 87 79 66
0.710985 1.584709 -0.586277 87 79 66
0.718931 1.58046 -0.585757 87 79 66
0.726769 1.576057 -0.585167 87 79 66
0.7352 1.57306 -0.585094 87 79 66
0.744307 1.571606 -0.585591 87 79 66
0.74875 1.560196 -0.582299 87 79 66
0.756954 1.557072 -0.582121 87 79 66
0.763568 1.550737 -0.580701 87 79 66
0.770371 1.545006 -0.579481 87 79 67
0.777163 1.539464 -0.578302 87 79 67
0.784814 1.535874 -0.577834 86 78 66
0.790967 1.529482 -0.576261 86 78 65
0.797504 1.524112 -0.57504 86 78 64
0.804586 1.520054 -0.574282 86 78 63
0.81216 1.51718 -0.573936 86 78 62
0.820108 1.51524 -0.573907 85 77 62
0.827479 1.512423 -0.573497 85 78 62
0.835068 1.510253 -0.57329 86 79 63
0.840433 1.504208 -0.571542 84 77 61
0.844607 1.496305 -0.569026 85 77 62
0.846082 1.483869 -0.564707 87 78 63
-0.699815 1.010695 -0.31986 117 113 101
-0.694658 1.011683 -0.320523 118 114 102
-0.690694 1.014717 -0.321836 118 114 102
-0.689332 1.022097 -0.324555 120 116 104
-0.686983 1.028155 -0.326816 122 118 106
-0.682798 1.031471 -0.328151 122 118 106
-0.67825 1.034379 -0.329328 122 118 106
-0.674433 1.03867 -0.330938 123 119 107
-0.669277 1.040916 -0.33185 127 121 109
-0.665978 1.046449 -0.333826 127 121 107
-0.663524 1.05363 -0.336327 129 123 109
-0.658935 1.057364 -0.337668 129 123 110
-0.655407 1.063102 -0.339654 130 124 111
-0.652084 1.069389 -0.341804 132 126 113
-0.647531 1.073678 -0.343277 132 126 112
-0.644269 1.080433 -0.345551 132 126 112
-0.639214 1.084109 -0.346793 133 128 114
-0.634082 1.087752 -0.348011 135 129 115
-0.631919 1.097026 -0.351082 136 130 116
-0.623971 1.095616 -0.350608 136 130 116
-0.620704 1.1031 -0.353068 137 131 117
-0.616076 1.108121 -0.354707 138 132 118
-0.61031 1.111017 -0.355637 139 133 119
-0.605217 1.115285 -0.357016 139 133 119
-0.601102 1.121581 -0.359063 140 134 120
-0.59946 1.133 -0.362803 141 135 121
-0.594048 1.13692 -0.36406 142 136 122
-0.587537 1.138597 -0.364575 141 135 121
-0.583213 1.14486 -0.366608 142 136 122
-0.579622 1.15278 -0.36919 144 138 124
-0.574773 1.158117 -0.37092 144 138 124
-0.569969 1.163619 -0.372708 144 138 123
-0.56464 1.168023 -0.374136 145 139 124
-0.559639 1.1732 -0.375823 146 140 124
-0.555419 1.180208 -0.378121 144 139 123
-0.550291 1.185228 -0.379766 143 140 123
-0.545189 1.190356 -0.381453 144 141 124
-0.540258 1.195941 -0.383296 145 142 125
-0.536383 1.204128 -0.386006 144 141 123
-0.531202 1.209271 -0.387716 145 141 127
-0.525787 1.213887 -0.389258 147 141 127
-0.520106 1.217873 -0.390599 146 141 125
-0.515402 1.224368 -0.392776 146 142 126
-0.510369 1.230109 -0.394712 148 143 127
-0.506126 1.237991 -0.397363 148 142 126
-0.501857 1.245944 -0.400045 149 143 128
-0.496524 1.251172 -0.401834 150 144 129
-0.491422 1.257096 -0.403861 150 144 130
-0.486666 1.264071 -0.406243 148 144 129
-0.480834 1.268136 -0.407671 150 145 131
-0.474842 1.271775 -0.408964 151 145 131
-0.470026 1.278863 -0.411408 151 145 131
-0.464418 1.283743 -0.413129 152 146 132
-0.45919 1.289837 -0.415259 153 147 133
-0.454279 1.297008 -0.417755 153 147 133
-0.449014 1.303233 -0.419945 153 147 133
-0.443433 1.308582 -0.421852 153 147 133
-0.438493 1.316088 -0.424483 153 147 135
-0.433439 1.323392 -0.427055 153 148 136
-0.427819 1.328992 -0.42907 153 148 136
-0.421905 1.333713 -0.4308 155 149 137
-0.416254 1.339427 -0.432868 155 149 137
-0.41034 1.344351 -0.434682 155 149 137
-0.405082 1.35172 -0.437315 155 149 137
-0.399163 1.356882 -0.439223 156 150 138
-0.392782 1.360453 -0.440609 156 150 138
-0.386465 1.364334 -0.442104 156 150 138
-0.382181 1.376126 -0.446241 157 151 138
-0.377073 1.385085 -0.449442 157 151 139
-0.371115 1.390927 -0.451614 157 151 139
-0.365127 1.396816 -0.453809 158 152 140
-0.35997 1.406368 -0.457232 159 152 140
-0.354922 1.416729 -0.460934 160 153 141
-0.348831 1.422923 -0.463253 160 153 142
-0.342872 1.429921 -0.465849 161 153 142
-0.33734 1.439125 -0.469188 162 154 143
-0.331071 1.445252 -0.471507 162 154 143
-0.324736 1.451288 -0.473803 163 155 144
-0.319923 1.465037 -0.478688 163 155 144
-0.31392 1.473427 -0.481787 163 155 144
-0.30759 1.480497 -0.484452 163 155 144
-0.301783 1.490659 -0.48816 164 156 145
-0.296106 1.502013 -0.492277 163 155 144
-0.289482 1.508646 -0.494818 163 155 143
-0.283179 1.517443 -0.498092 163 155 142
-0.276113 1.522182 -0.50001 163 155 142
-0.27079 1.537795 -0.505592 163 155 143
-0.263853 1.544161 -0.508071 163 155 144
-0.256644 1.549109 -0.510081 161 154 143
-0.251158 1.56591 -0.516089 160 154 142
-0.244544 1.575966 -0.519835 160 154 142
-0.23855 1.591149 -0.525318 161 154 142
-0.23146 1.599219 -0.528411 161 153 142
-0.224514 1.608967 -0.532077 160 152 141
-0.217765 1.621016 -0.536529 159 151 140
-0.21014 1.626663 -0.538824 159 151 140
-0.202658 1.633994 -0.541695 158 150 139
-0.195602 1.645829 -0.546099 158 150 139
-0.188902 1.662126 -0.552025 158 150 139
-0.180874 1.666645 -0.553965 157 149 138
-0.173076 1.67401 -0.556877 157 149 138
-0.164981 1.678822 -0.558929 156 148 137
-0.158343 1.701305 -0.566993 155 147 136
-0.150578 1.712392 -0.571195 154 146 135
-0.142617 1.722277 -0.574996 154 146 135
-0.134364 1.729321 -0.577837 153 145 134
-0.126011 1.735828 -0.580501 152 144 133
-0.117954 1.748249 -0.58519 151 143 132
-0.109245 1.751051 -0.586603 150 143 131
-0.100759 1.758769 -0.589701 150 142 131
-0.092205 1.766571 -0.592834 148 140 129
-0.083653 1.776258 -0.59662 147 139 128
-0.075208 1.791497 -0.602316 144 136 125
-0.066478 1.802296 -0.6065 142 134 123
-0.057606 1.81165 -0.610198 141 132 121
-0.048757 1.826311 -0.615725 139 130 119
-0.039608 1.831364 -0.617963 138 128 118
-0.030467 1.841369 -0.62191 137 127 117
-0.021217 1.849531 -0.625231 135 125 115
-0.01188 1.853311 -0.627051 131 122 111
-0.002487 1.863087 -0.630943 129 121 108
0.007022 1.875344 -0.635699 127 119 106
0.016584 1.882364 -0.638659 126 116 104
0.026221 1.8897 -0.641735 122 113 100
0.035905 1.895851 -0.644409 119 109 96
0.045683 1.903228 -0.647515 115 106 92
0.055588 1.912214 -0.651186 111 101 89
0.065451 1.917658 -0.653639 107 99 86
0.075389 1.923566 -0.65626 103 97 81
0.085493 1.9317 -0.659661 100 94 79
0.095398 1.934409 -0.661187 98 92 77
0.105218 1.935097 -0.662017 95 90 75
0.1152 1.938227 -0.663701 93 87 73
0.125748 1.949324 -0.668167 91 85 71
0.136122 1.956394 -0.671241 89 82 69
0.146476 1.962235 -0.673896 87 81 68
0.156996 1.969324 -0.676995 86 80 66
0.167821 1.979085 -0.681038 80 76 62
0.178058 1.981259 -0.682439 76 72 58
0.188363 1.983847 -0.683992 74 70 56
0.198603 1.985456 -0.685209 67 62 48
0.208808 1.986501 -0.686236 67 59 46
0.218568 1.983364 -0.685802 64 57 44
0.228013 1.977686 -0.684479 64 57 44
0.237164 1.969957 -0.682437 65 58 45
0.246722 1.965985 -0.68172 68 60 47
0.256117 1.960975 -0.680643 70 63 50
0.26559 1.956823 -0.679871 72 64 52
0.274828 1.9512 -0.678585 72 65 52
0.284026 1.94559 -0.677308 74 67 54
0.293226 1.940277 -0.676139 76 68 56
0.302283 1.934284 -0.674734 77 69 58
0.311098 1.927059 -0.672897 79 71 60
0.319879 1.919968 -0.67111 78 71 60
0.329118 1.915878 -0.670394 79 73 61
0.338149 1.910737 -0.66931 81 73 60
0.346829 1.903833 -0.667603 83 75 62
0.355552 1.897432 -0.66608 83 75 62
0.364573 1.892828 -0.665203 83 75 62
0.373783 1.889318 -0.664724 84 75 62
0.38249 1.883366 -0.663379 84 76 63
0.39107 1.876983 -0.661885 82 75 62
0.399498 1.870071 -0.660207 82 75 62
0.408024 1.863826 -0.658774 82 75 62
0.416613 1.858035 -0.65751 82 75 62
0.424933 1.851205 -0.655879 82 75 62
0.433388 1.845138 -0.654529 82 75 63
0.442232 1.840859 -0.65383 83 76 63
0.449022 1.828139 -0.650091 83 76 64
0.457629 1.823193 -0.649165 84 77 64
0.466703 1.820176 -0.648945 83 77 64
0.475501 1.81608 -0.648344 83 77 64
0.482778 1.806227 -0.645662 84 77 64
0.486727 1.784203 -0.638562 84 78 65
0.496308 1.78352 -0.63922 85 78 65
0.505828 1.782516 -0.639774 85 79 65
0.514529 1.778524 -0.63925 87 79 66
0.522671 1.772614 -0.638036 86 79 66
0.530851 1.766914 -0.636907 86 78 65
0.538694 1.760155 -0.635397 88 80 67
0.545978 1.751667 -0.633261 87 79 67
0.55363 1.744524 -0.631624 88 80 69
0.561897 1.739434 -0.63075 88 80 69
0.569201 1.731385 -0.628793 88 80 69
0.577231 1.725689 -0.627711 88 80 68
0.585232 1.719958 -0.626623 87 79 66
0.591776 1.709972 -0.623967 88 80 69
0.599283 1.702974 -0.622422 89 81 70
0.607057 1.696832 -0.6212 87 79 68
0.61503 1.691314 -0.620216 88 80 69
0.621266 1.681022 -0.617459 87 79 68
0.627534 1.671011 -0.614807 87 79 68
0.634979 1.664346 -0.613405 88 79 66
0.64198 1.656589 -0.611597 87 79 66
0.650227 1.652197 -0.611052 87 79 66
0.657694 1.645823 -0.609766 87 79 66
0.664246 1.637215 -0.607639 87 79 67
0.671211 1.629788 -0.605953 87 79 68
0.6776 1.621067 -0.603775 86 78 66
0.685492 1.616151 -0.603031 86 78 65
0.692262 1.608618 -0.60129 86 78 65
0.700519 1.60473 -0.600925 86 78 65
0.708864 1.601094 -0.600651 86 78 65
0.71159 1.584641 -0.595483 86 78 65
0.718687 1.578473 -0.594216 86 79 65
0.726682 1.574449 -0.593754 86 79 65
0.734672 1.570509 -0.59331 86 79 65
0.741316 1.563751 -0.591767 86 78 65
0.749185 1.55981 -0.591283 86 78 65
0.756096 1.553972 -0.590047 86 78 65
0.755357 1.532329 -0.582686 86 78 65
0.769892 1.542823 -0.587692 86 78 65
0.776779 1.537537 -0.586579 85 78 65
0.781554 1.528208 -0.583865 85 77 64
0.787513 1.521563 -0.58215 85 77 63
0.795039 1.518279 -0.581701 85 77 62
0.803571 1.517162 -0.582054 85 77 61
0.811499 1.515054 -0.581981 85 76 61
0.819759 1.513786 -0.582193 85 77 62
0.827249 1.511266 -0.581872 85 76 61
0.834622 1.508762 -0.581509 85 77 61
0.842431 1.50731 -0.58151 84 75 60
0.847977 1.501947 -0.579931 85 76 61
0.868519 1.524066 -0.589067 86 77 62
-0.699822 1.009399 -0.325451 117 113 101
-0.69545 1.011562 -0.326523 118 114 102
-0.692651 1.016393 -0.328462 119 115 103
-0.69041 1.022335 -0.330749 119 115 103
-0.686414 1.025696 -0.332149 121 117 105
-0.682501 1.029386 -0.333634 122 118 106
-0.678166 1.03258 -0.334928 123 119 107
-0.673373 1.035195 -0.336004 122 118 106
-0.669219 1.039042 -0.33747 123 120 105
-0.665489 1.043785 -0.339215 126 122 108
-0.66295 1.050751 -0.341686 127 123 110
-0.660344 1.057835 -0.344177 129 123 109
-0.657879 1.065389 -0.346807 129 123 110
-0.652446 1.067955 -0.34774 132 126 112
-0.647817 1.072065 -0.349175 131 126 112
-0.644705 1.079042 -0.351559 130 127 112
-0.639964 1.083252 -0.352998 133 127 113
-0.634489 1.086236 -0.35401 134 128 114
-0.63078 1.092592 -0.356146 136 130 116
-0.626804 1.098603 -0.358155 135 129 115
-0.621692 1.102592 -0.359475 137 131 117
-0.616998 1.107472 -0.361087 137 131 117
-0.61195 1.11176 -0.362493 137 131 117
-0.606662 1.115653 -0.363762 139 133 119
-0.604006 1.124864 -0.366816 140 134 120
-0.59927 1.130056 -0.368515 140 134 120
-0.594358 1.134971 -0.370119 142 136 122
-0.589655 1.140389 -0.371891 142 136 122
-0.584322 1.144564 -0.373246 142 136 122
-0.580465 1.151919 -0.375671 143 137 123
-0.575392 1.156775 -0.377257 143 137 123
-0.570194 1.161415 -0.378774 144 138 124
-0.566134 1.168615 -0.381154 145 139 125
-0.561109 1.173765 -0.382849 146 140 126
-0.556233 1.179309 -0.384681 146 140 126
-0.551351 1.184904 -0.386535 146 140 126
-0.546254 1.190063 -0.388249 147 140 124
-0.542319 1.198023 -0.390908 147 141 125
-0.537329 1.203586 -0.392769 146 140 124
-0.531912 1.208172 -0.394308 146 141 126
-0.526217 1.212109 -0.395635 146 141 127
-0.522211 1.220292 -0.398396 146 141 126
-0.517639 1.227181 -0.40073 145 142 125
-0.512807 1.233508 -0.402882 146 143 126
-0.506155 1.235171 -0.403474 149 143 127
-0.50087 1.240413 -0.405277 148 142 126
-0.497063 1.249697 -0.408445 149 143 127
-0.492887 1.258158 -0.411346 149 143 129
-0.487275 1.262805 -0.412972 148 143 129
-0.481277 1.266415 -0.414257 150 144 130
-0.475907 1.271843 -0.416162 151 145 131
-0.470377 1.276887 -0.417945 151 145 131
-0.465394 1.283617 -0.420304 151 145 131
-0.459812 1.288675 -0.422109 152 146 132
-0.454409 1.294359 -0.424132 153 147 133
-0.44978 1.302543 -0.427005 153 147 133
-0.444825 1.309886 -0.429603 153 147 133
-0.4394 1.31589 -0.431758 153 147 135
-0.434038 1.32222 -0.434032 152 147 135
-0.428114 1.326824 -0.435732 152 148 136
-0.4221 1.331206 -0.437364 154 148 137
-0.416651 1.337604 -0.439684 155 149 137
-0.411409 1.34488 -0.442309 155 149 137
-0.405685 1.350629 -0.444426 155 149 137
-0.399969 1.356549 -0.446609 155 149 137
-0.394143 1.362209 -0.448711 156 150 137
-0.388394 1.368304 -0.450969 156 150 138
-0.383254 1.376906 -0.454082 156 150 138
-0.377434 1.383117 -0.456394 157 151 139
-0.371599 1.389445 -0.458754 157 151 139
-0.366048 1.39713 -0.46158 158 152 140
-0.360091 1.403376 -0.463927 158 152 140
-0.355256 1.414611 -0.467973 159 152 141
-0.34948 1.422167 -0.47078 160 153 142
-0.343955 1.43112 -0.474069 161 153 142
-0.338079 1.438816 -0.476939 161 154 142
-0.331835 1.445088 -0.479333 162 154 143
-0.325369 1.450537 -0.481455 162 155 143
-0.320589 1.464453 -0.486463 163 155 143
-0.314187 1.470861 -0.488926 163 155 144
-0.307624 1.476703 -0.491204 163 155 143
-0.301691 1.486127 -0.494708 163 155 142
-0.295762 1.496026 -0.498383 162 154 143
-0.28985 1.506509 -0.502265 162 154 143
-0.283489 1.514954 -0.50546 163 155 143
-0.277826 1.527959 -0.510219 163 155 144
-0.27103 1.534798 -0.512882 163 155 144
-0.264085 1.541071 -0.515358 161 154 143
-0.258164 1.554323 -0.520228 160 153 142
-0.251493 1.563382 -0.523672 159 153 141
-0.245076 1.574765 -0.52792 160 153 142
-0.23848 1.58561 -0.531992 159 152 141
-0.231653 1.595487 -0.535741 159 152 141
-0.224707 1.605136 -0.53942 159 152 140
-0.217878 1.616439 -0.543675 159 151 140
-0.210774 1.62632 -0.547449 158 150 139
-0.202835 1.62971 -0.549001 158 150 139
-0.196978 1.652329 -0.557172 158 150 139
-0.18924 1.659072 -0.559892 158 150 139
-0.181409 1.665488 -0.562506 157 149 138
-0.174001 1.67698 -0.566876 156 148 137
-0.166675 1.690567 -0.571977 155 147 136
-0.15939 1.706164 -0.577783 155 147 136
-0.151405 1.714888 -0.581225 154 146 135
-0.142979 1.718837 -0.583024 153 145 134
-0.134773 1.726427 -0.586088 152 144 133
-0.126045 1.727127 -0.586774 151 143 132
-0.117617 1.732823 -0.589194 150 142 131
-0.109501 1.745076 -0.593893 149 141 130
-0.101284 1.757634 -0.598707 148 140 129
-0.092647 1.763692 -0.601275 146 138 127
-0.084712 1.788177 -0.61025 144 136 125
-0.076153 1.80203 -0.615544 142 134 123
-0.067298 1.810702 -0.619047 140 132 121
-0.058363 1.819508 -0.622604 139 130 119
-0.049288 1.825757 -0.625279 138 128 118
-0.040109 1.829369 -0.627041 136 126 116
-0.031001 1.841955 -0.63194 134 125 114
-0.021715 1.846631 -0.634086 132 124 113
-0.012386 1.852106 -0.636518 128 120 107
-0.002997 1.859857 -0.639753 127 119 106
0.006511 1.873073 -0.644909 124 116 103
0.016075 1.880363 -0.647999 120 112 97
0.025673 1.885545 -0.650359 118 109 94
0.035323 1.890715 -0.652721 115 106 91
0.045058 1.897061 -0.655504 111 102 88
0.05499 1.907552 -0.65975 105 97 84
0.064916 1.915043 -0.662952 100 94 80
0.074854 1.921001 -0.665624 99 93 77
0.084904 1.928057 -0.668689 97 91 76
0.094816 1.931025 -0.670323 94 89 74
0.10468 1.932587 -0.671466 91 86 71
0.114767 1.937442 -0.673778 89 83 69
0.125502 1.951256 -0.679266 86 80 66
0.135796 1.956926 -0.681885 82 77 64
0.146105 1.961995 -0.684301 78 74 62
0.156547 1.968008 -0.68706 75 71 58
0.16729 1.97675 -0.690797 68 63 50
0.177711 1.980938 -0.692928 59 51 39
0.18777 1.980847 -0.693547 51 40 28
0.198531 1.987639 -0.696621 39 25 13
0.208476 1.986011 -0.696707 42 28 17
0.218073 1.981292 -0.695699 46 33 22
0.227509 1.975503 -0.694312 51 39 29
0.237123 1.971586 -0.693596 57 47 35
0.246748 1.967967 -0.692992 58 52 40
0.256539 1.96581 -0.692916 61 54 42
0.265701 1.959073 -0.691206 64 57 45
0.274489 1.950063 -0.688685 65 59 47
0.28318 1.940901 -0.686111 69 62 51
0.293403 1.942442 -0.687382 70 63 51
0.30206 1.933709 -0.68497 73 66 54
0.310657 1.92505 -0.682587 75 68 56
0.319383 1.917591 -0.680639 75 69 57
0.328576 1.913216 -0.679806 75 69 57
0.337813 1.909235 -0.679121 78 72 59
0.345941 1.899227 -0.676266 78 71 59
0.354895 1.894109 -0.675181 78 72 59
0.364057 1.890244 -0.674556 80 73 61
0.373064 1.885682 -0.673686 81 75 62
0.381553 1.878656 -0.671929 80 74 61
0.390625 1.874698 -0.671291 80 73 61
0.399428 1.869543 -0.670226 79 73 60
0.407543 1.86133 -0.668055 79 73 60
0.415815 1.854088 -0.666242 79 73 61
0.423732 1.845489 -0.663939 80 73 61
0.433149 1.843629 -0.664104 79 73 61
0.441639 1.837817 -0.662833 80 74 62
0.449438 1.829265 -0.660566 81 75 62
0.456923 1.81968 -0.657925 81 75 62
0.465558 1.814922 -0.657061 81 75 62
0.474137 1.810013 -0.65615 82 75 62
0.48153 1.800657 -0.65361 82 76 63
0.486283 1.781683 -0.647529 83 76 63
0.495421 1.779361 -0.647591 84 77 64
0.50534 1.779798 -0.648685 84 78 64
0.51427 1.776604 -0.648449 85 79 65
0.522538 1.771099 -0.647368 85 79 65
0.529819 1.762313 -0.645076 86 79 66
0.537853 1.756213 -0.643789 87 79 67
0.545405 1.748614 -0.641952 86 79 68
0.553654 1.743388 -0.641006 87 79 68
0.561723 1.737633 -0.639871 87 79 68
0.570054 1.732753 -0.639072 87 79 68
0.577046 1.723808 -0.636759 87 79 68
0.584253 1.715669 -0.634752 87 79 66
0.59161 1.708106 -0.632967 87 79 67
0.598547 1.699434 -0.630769 88 80 69
0.606504 1.693823 -0.629729 87 79 68
0.614408 1.688112 -0.628657 87 79 68
0.620032 1.676136 -0.625221 86 78 66
0.628029 1.670878 -0.624329 86 78 67
0.635179 1.663383 -0.622592 86 78 65
0.642467 1.656365 -0.621038 86 78 65
0.649859 1.649715 -0.619625 86 78 65
0.658092 1.64531 -0.619069 86 78 65
0.664587 1.636539 -0.616847 86 78 66
0.672002 1.630221 -0.615559 86 78 67
0.678983 1.622928 -0.613895 86 78 65
0.685219 1.613959 -0.61158 85 77 64
0.692696 1.608129 -0.610465 85 77 64
0.701128 1.604647 -0.610247 85 77 64
0.709997 1.60222 -0.610431 85 77 64
0.71754 1.596783 -0.609443 85 78 64
0.72918 1.600711 -0.612072 85 78 65
0.734118 1.589586 -0.608854 86 78 65
0.739522 1.57977 -0.606119 86 78 65
0.744565 1.569434 -0.603156 85 78 65
0.750988 1.562341 -0.601429 85 78 64
0.755618 1.551671 -0.598276 85 78 64
0.762534 1.546092 -0.59708 85 77 64
0.769853 1.54155 -0.59626 85 77 63
0.776796 1.53643 -0.59518 84 77 63
0.780134 1.524263 -0.591294 84 76 61
0.786074 1.517673 -0.589557 84 76 61
0.794607 1.516464 -0.589898 84 76 60
0.802172 1.513536 -0.589522 84 75 60
0.812577 1.516292 -0.591348 84 75 60
0.82095 1.515282 -0.591645 85 76 61
0.826677 1.509481 -0.589998 84 75 60
0.834341 1.507601 -0.589855 84 75 60
0.843983 1.509606 -0.591204 84 75 60
0.854138 1.512714 -0.592943 84 75 60
0.856533 1.50192 -0.58911 85 76 61
-0.703295 1.013503 -0.332867 117 113 101
-0.697237 1.013017 -0.333062 118 114 102
-0.693805 1.016809 -0.334685 119 115 103
-0.691093 1.021956 -0.336744 119 115 103
-0.68627 1.023939 -0.337701 120 116 104
-0.6806 1.024718 -0.338221 121 117 105
-0.679217 1.032652 -0.341157 122 118 106
-0.681395 1.046738 -0.346171 121 117 105
-0.669952 1.038498 -0.343536 124 120 108
-0.665233 1.041527 -0.344726 124 120 108
-0.66366 1.050068 -0.347778 124 121 107
-0.660404 1.055984 -0.349911 126 122 107
-0.657886 1.063387 -0.352533 130 124 110
-0.652414 1.065833 -0.353439 128 124 110
-0.648196 1.070618 -0.355128 128 125 110
-0.644074 1.075735 -0.356914 129 126 111
-0.640317 1.081669 -0.358963 130 126 111
-0.635691 1.086175 -0.36051 133 127 113
-0.630578 1.089902 -0.361778 135 129 115
-0.626888 1.096401 -0.363982 135 129 115
-0.623002 1.102683 -0.366103 137 131 117
-0.617142 1.105311 -0.366965 137 131 117
-0.613644 1.112584 -0.36941 138 132 118
-0.608447 1.116666 -0.370757 138 132 118
-0.603612 1.121536 -0.372369 139 133 119
-0.599299 1.127543 -0.374366 140 134 120
-0.596236 1.136208 -0.37727 141 135 121
-0.590901 1.14034 -0.378623 142 136 122
-0.585205 1.143765 -0.379733 142 136 122
-0.58103 1.150441 -0.381956 142 136 122
-0.575388 1.154071 -0.38314 143 137 123
-0.569717 1.15766 -0.384312 143 137 123
-0.567151 1.16812 -0.387834 145 139 125
-0.561876 1.172723 -0.389359 145 139 125
-0.55653 1.177207 -0.390848 146 140 126
-0.551703 1.182922 -0.392762 145 140 126
-0.546759 1.188434 -0.394612 146 139 125
-0.542751 1.196215 -0.397242 146 140 124
-0.537815 1.201906 -0.399165 147 141 125
-0.532355 1.206394 -0.400683 147 141 126
-0.527589 1.212622 -0.402803 147 141 127
-0.523465 1.220538 -0.405505 146 141 126
-0.518068 1.225367 -0.407161 146 142 126
-0.513298 1.231854 -0.40939 146 142 126
-0.507405 1.235511 -0.410661 147 142 126
-0.501627 1.239484 -0.412047 149 143 126
-0.497757 1.248605 -0.415199 149 143 127
-0.493129 1.255844 -0.417716 150 144 130
-0.487736 1.261095 -0.419563 149 143 129
-0.482434 1.26667 -0.421528 149 143 129
-0.477137 1.272344 -0.423535 150 144 130
-0.471703 1.277707 -0.425444 151 145 131
-0.466384 1.283489 -0.427505 150 146 131
-0.460719 1.288334 -0.429253 151 146 132
-0.455622 1.294978 -0.431625 152 146 132
-0.450581 1.301926 -0.434109 152 146 132
-0.445398 1.308572 -0.436498 153 147 133
-0.43997 1.314576 -0.438676 153 147 133
-0.433983 1.318888 -0.440283 152 148 135
-0.428192 1.323909 -0.442141 151 148 134
-0.422774 1.330284 -0.44447 154 149 136
-0.417944 1.338824 -0.44755 154 148 136
-0.412274 1.34466 -0.449711 154 149 137
-0.406286 1.349503 -0.45154 155 149 137
-0.401162 1.357579 -0.454485 155 149 137
-0.394902 1.361696 -0.45608 155 149 137
-0.389187 1.367944 -0.458415 156 149 137
-0.383476 1.37438 -0.460822 156 150 138
-0.377879 1.381446 -0.463453 156 150 138
-0.372641 1.390164 -0.46666 157 151 139
-0.366954 1.397344 -0.469346 158 151 139
-0.361215 1.404539 -0.472046 158 152 140
-0.355508 1.412114 -0.474884 159 152 141
-0.35003 1.42095 -0.478165 160 153 141
-0.344485 1.429818 -0.481465 161 153 142
-0.338855 1.438637 -0.484756 161 154 142
-0.332092 1.442529 -0.486357 162 154 143
-0.326235 1.450866 -0.489498 162 154 143
-0.321274 1.463929 -0.494278 162 154 143
-0.314794 1.469972 -0.496643 162 155 143
-0.308104 1.475186 -0.498729 162 155 142
-0.302816 1.488008 -0.503452 163 155 143
-0.296397 1.495332 -0.506283 162 154 143
-0.290418 1.505459 -0.510091 162 154 143
-0.284502 1.516465 -0.514212 162 154 143
-0.278284 1.526272 -0.517927 162 154 143
-0.27146 1.532936 -0.52056 161 154 142
-0.265237 1.543723 -0.52463 160 154 142
-0.258883 1.554296 -0.528635 160 154 142
-0.251987 1.561891 -0.531615 158 152 140
-0.245449 1.572429 -0.535624 159 152 141
-0.238777 1.582695 -0.539547 158 152 140
-0.231789 1.591311 -0.542904 158 152 140
-0.224465 1.597945 -0.545579 158 151 139
-0.217488 1.607822 -0.549391 159 151 140
-0.210965 1.62224 -0.554794 158 150 139
-0.203905 1.633177 -0.558992 158 150 139
-0.196723 1.643932 -0.563136 157 149 138
-0.189428 1.654563 -0.567245 157 149 138
-0.182159 1.666447 -0.571801 157 149 138
-0.175262 1.683397 -0.578138 156 148 137
-0.167065 1.687775 -0.580085 156 148 137
-0.159951 1.705254 -0.586628 154 146 135
-0.151606 1.709553 -0.588562 153 145 134
-0.143399 1.716175 -0.591316 152 144 133
-0.134792 1.718005 -0.592395 151 143 132
-0.126006 1.71736 -0.592609 150 142 131
-0.117085 1.714342 -0.591992 149 141 130
-0.109753 1.739035 -0.601125 148 139 129
-0.101961 1.759423 -0.608758 146 138 127
-0.093278 1.764848 -0.611133 144 136 125
-0.08512 1.784175 -0.618416 142 134 123
-0.076502 1.796037 -0.623079 140 132 121
-0.067707 1.805919 -0.627052 139 130 119
-0.058957 1.821051 -0.632889 137 128 117
-0.049831 1.825713 -0.635035 136 126 116
-0.040606 1.827196 -0.636063 134 124 114
-0.031457 1.836088 -0.639718 131 123 112
-0.022208 1.843099 -0.642716 130 122 111
-0.012885 1.847761 -0.644888 126 118 105
-0.003494 1.861149 -0.650163 123 115 102
0.005972 1.866832 -0.652713 120 112 99
0.015525 1.875071 -0.656179 117 109 94
0.02511 1.88039 -0.658614 113 106 90
0.034768 1.886589 -0.66137 109 102 86
0.044537 1.894626 -0.664788 104 97 83
0.054424 1.903783 -0.668616 101 95 81
0.064354 1.91162 -0.671981 97 91 77
0.074289 1.917673 -0.674719 94 91 75
0.084272 1.923429 -0.677358 93 88 73
0.094249 1.927889 -0.679542 90 85 71
0.104277 1.932417 -0.681758 87 82 68
0.114502 1.939342 -0.684841 82 77 64
0.124991 1.949165 -0.688973 77 73 61
0.135411 1.956599 -0.692259 71 67 55
0.145825 1.962906 -0.69515 62 55 44
0.156412 1.970518 -0.69852 49 37 26
0.16701 1.977297 -0.7016 44 28 17
0.177117 1.97787 -0.702456 43 26 14
0.187183 1.977864 -0.70311 43 26 14
0.197643 1.981695 -0.705154 41 24 12
0.207933 1.983475 -0.706468 41 24 11
0.217409 1.977655 -0.705041 40 23 11
0.226989 1.97314 -0.70409 40 22 10
0.236693 1.96994 -0.70362 40 24 11
0.246764 1.969828 -0.704274 40 24 11
0.256866 1.96987 -0.704993 43 28 17
0.266483 1.966239 -0.704385 46 33 21
0.276096 1.962739 -0.70383 52 42 31
0.285447 1.957587 -0.70268 57 49 38
0.293865 1.946469 -0.699361 60 53 41
0.303152 1.941562 -0.698308 63 56 44
0.310329 1.923701 -0.692531 67 61 49
0.319076 1.916312 -0.690578 69 63 51
0.328434 1.912848 -0.690064 71 64 52
0.33771 1.909012 -0.689421 74 68 56
0.345438 1.896701 -0.685678 73 67 55
0.354622 1.892805 -0.685024 75 69 56
0.36375 1.888714 -0.684305 77 71 59
0.372064 1.880566 -0.682102 78 72 59
0.380814 1.874885 -0.680811 78 72 58
0.389713 1.870098 -0.679856 77 71 58
0.398394 1.864393 -0.678571 77 71 58
0.406884 1.857961 -0.677023 77 71 58
0.415195 1.850896 -0.675247 77 70 58
0.422815 1.840979 -0.672422 77 71 58
0.431284 1.835054 -0.67108 77 71 59
0.440093 1.830696 -0.670327 78 72 60
0.4486 1.825157 -0.669144 78 72 60
0.456882 1.81881 -0.667669 79 73 60
0.46539 1.813499 -0.666586 79 73 60
0.473402 1.806347 -0.664826 79 73 61
0.481456 1.799511 -0.66319 80 74 61
0.486321 1.780918 -0.657162 81 75 62
0.496053 1.780714 -0.65802 82 76 62
0.50508 1.777857 -0.657896 83 77 63
0.513929 1.774342 -0.657537 85 78 65
0.522009 1.768169 -0.656189 85 79 65
0.529524 1.760169 -0.65416 85 79 66
0.537266 1.753073 -0.65248 85 79 67
0.545255 1.746902 -0.651155 84 78 66
0.553598 1.741947 -0.650299 86 79 67
0.562116 1.737577 -0.649674 86 78 67
0.569024 1.728222 -0.647166 86 79 67
0.576545 1.720915 -0.645441 85 79 67
0.583805 1.712934 -0.643465 86 78 65
0.590631 1.7038 -0.641055 86 78 65
0.598098 1.696688 -0.63942 85 77 64
0.605914 1.69067 -0.638208 86 78 66
0.613742 1.684749 -0.63704 86 78 67
0.618792 1.671198 -0.632948 86 78 67
0.627148 1.666952 -0.632429 86 78 67
0.635499 1.662703 -0.631915 87 79 67
0.641395 1.651981 -0.628909 86 78 65
0.649298 1.646694 -0.627999 85 77 64
0.658145 1.643875 -0.628047 86 78 65
0.664908 1.63578 -0.626052 85 77 65
0.672043 1.62875 -0.624466 84 76 64
0.678001 1.618949 -0.621798 85 77 64
0.685488 1.613047 -0.62064 84 76 63
0.693185 1.607742 -0.619709 84 76 63
0.701624 1.604271 -0.619488 84 76 63
0.710284 1.601357 -0.619477 84 76 63
0.720838 1.602814 -0.621174 84 77 64
0.724538 1.588745 -0.616762 85 77 64
0.729293 1.577386 -0.613388 85 77 64
0.738994 1.577187 -0.61439 85 77 64
0.749253 1.578216 -0.615863 85 77 63
0.755868 1.571446 -0.614232 84 77 63
0.762241 1.564376 -0.612454 84 76 62
0.768599 1.557509 -0.610724 84 76 62
0.770623 1.541944 -0.6055 84 76 61
0.776788 1.535275 -0.603772 83 75 60
0.779167 1.52124 -0.599067 83 75 60
0.787681 1.519857 -0.599364 83 75 59
0.800543 1.527192 -0.603108 82 75 59
0.805848 1.519801 -0.600925 82 75 59
0.816018 1.52209 -0.602572 82 74 59
0.821833 1.516205 -0.600897 82 73 58
0.829186 1.513522 -0.600457 83 74 59
0.83624 1.510525 -0.599841 83 75 60
0.839499 1.50078 -0.596459 82 74 59
0.852632 1.509483 -0.600448 83 74 59
0.864449 1.515846 -0.603449 83 75 59
-0.699777 1.006778 -0.336595 116 112 100
-0.698034 1.012938 -0.339093 117 113 101
-0.695573 1.018212 -0.34126 118 114 102
-0.693557 1.024425 -0.343728 119 115 103
-0.688035 1.025263 -0.344309 120 116 104
-0.68109 1.023946 -0.344115 120 116 104
-0.680094 1.03245 -0.347301 121 117 105
-0.676772 1.037404 -0.349231 121 117 105
-0.671311 1.039006 -0.349973 123 119 107
-0.667856 1.044124 -0.35191 125 121 107
-0.663618 1.048117 -0.353434 124 121 106
-0.661705 1.056273 -0.356383 126 123 108
-0.657181 1.060157 -0.357825 128 124 109
-0.65376 1.06613 -0.359973 127 124 109
-0.648315 1.068714 -0.360923 128 125 110
-0.644016 1.07346 -0.362608 129 126 111
-0.641054 1.08078 -0.365171 130 127 112
-0.636703 1.085756 -0.366904 133 127 113
-0.632063 1.090336 -0.368486 133 127 113
-0.62735 1.094902 -0.37005 135 129 115
-0.622073 1.098511 -0.371271 137 131 117
-0.620244 1.108818 -0.374813 137 131 117
-0.614754 1.112252 -0.375956 137 131 117
-0.609901 1.117002 -0.377551 138 132 118
-0.604586 1.12092 -0.37885 139 133 119
-0.600776 1.127932 -0.381222 141 135 121
-0.596986 1.135114 -0.38365 140 134 120
-0.591753 1.139452 -0.385087 141 135 121
-0.587143 1.145146 -0.386995 141 135 121
-0.58177 1.149312 -0.388373 142 136 122
-0.575611 1.151833 -0.389181 143 137 123
-0.571921 1.159716 -0.391852 143 137 123
-0.567889 1.166981 -0.394312 145 139 125
-0.562314 1.17092 -0.39562 144 138 124
-0.556866 1.175171 -0.397042 145 139 125
-0.552074 1.180956 -0.399 146 140 126
-0.546766 1.185617 -0.400572 145 139 125
-0.543653 1.195489 -0.40396 145 141 125
-0.538356 1.20033 -0.405606 146 140 125
-0.532929 1.204903 -0.407167 145 141 125
-0.528363 1.211628 -0.409481 145 141 125
-0.524025 1.219019 -0.412032 147 141 126
-0.518578 1.22373 -0.413662 147 141 126
-0.513166 1.228573 -0.415344 146 141 127
-0.508552 1.235539 -0.417771 148 142 128
-0.503953 1.24266 -0.420259 147 142 128
-0.498312 1.247108 -0.421828 149 143 129
-0.492874 1.25215 -0.423611 149 143 129
-0.48842 1.25997 -0.426366 150 144 130
-0.483507 1.266651 -0.428734 149 143 129
-0.47788 1.271417 -0.430446 151 145 131
-0.472806 1.277841 -0.432741 150 144 132
-0.467454 1.283562 -0.434801 150 144 131
-0.46229 1.289941 -0.437098 151 146 132
-0.456455 1.2944 -0.438736 152 146 132
-0.451036 1.300204 -0.44085 152 147 132
-0.446174 1.307863 -0.443617 151 147 132
-0.440225 1.312229 -0.445248 152 146 132
-0.434579 1.31764 -0.447251 153 147 133
-0.429068 1.323605 -0.449454 152 148 134
-0.423646 1.329995 -0.451813 152 148 135
