ply
format ascii 1.0
comment ---
element vertex 1186
property float x
property float y
property float z
property uchar red
property uchar green
property uchar blue
element face 0
property list uchar uint vertex_indices
end_header
0.038287 2.007955 -0.446836 191 181 171
0.048794 2.015289 -0.447681 192 182 172
0.059615 2.02441 -0.448783 192 181 171
0.070351 2.032124 -0.449656 193 180 171
0.082188 2.047165 -0.451625 190 179 170
0.09323 2.055505 -0.45256 189 179 169
0.103816 2.060075 -0.452908 190 179 170
0.113906 2.060965 -0.452684 188 178 168
0.124914 2.067526 -0.453302 188 178 170
0.135501 2.070953 -0.45343 188 178 169
0.145856 2.072661 -0.453284 188 178 169
0.155881 2.072207 -0.452798 184 174 165
0.165762 2.070825 -0.452158 165 152 143
0.175354 2.067787 -0.451255 160 148 135
0.184845 2.064226 -0.450261 159 147 133
0.194706 2.062649 -0.449551 155 146 131
0.203992 2.058076 -0.44838 155 146 131
0.213117 2.052794 -0.447091 155 146 131
0.22182 2.045568 -0.445501 155 145 131
0.230505 2.038465 -0.44392 155 145 131
0.239403 2.032552 -0.442506 155 144 131
0.248731 2.028727 -0.441391 154 144 131
0.257421 2.022111 -0.439854 154 144 131
0.266071 2.015489 -0.438307 153 143 131
0.274338 2.007396 -0.436536 153 143 131
0.282021 1.997095 -0.434435 152 142 130
0.290908 1.992017 -0.433097 152 142 130
0.299786 1.987003 -0.431762 153 143 131
0.308417 1.981123 -0.430295 152 142 130
0.315747 1.970371 -0.428115 152 142 130
0.324023 1.963514 -0.426504 152 142 130
0.332789 1.958649 -0.425181 151 141 129
0.340457 1.949904 -0.423297 152 142 130
0.348663 1.943333 -0.421732 151 141 128
0.357441 1.938948 -0.420487 149 140 125
0.36606 1.934126 -0.419185 151 142 127
0.373731 1.926231 -0.417448 150 141 126
0.38094 1.91705 -0.41554 150 141 126
0.389113 1.911316 -0.414139 150 141 126
0.396647 1.903721 -0.412487 150 141 125
0.405129 1.899387 -0.411318 149 140 125
0.413453 1.89473 -0.410122 149 140 124
0.421558 1.889587 -0.408878 148 138 125
0.429033 1.882765 -0.407422 148 138 126
0.436375 1.875823 -0.405976 147 137 125
0.443985 1.869958 -0.404713 148 138 126
0.451437 1.863911 -0.403458 147 137 125
0.459554 1.86004 -0.402543 147 137 124
0.46681 1.853997 -0.40136 147 138 124
0.473334 1.846239 -0.399976 146 137 122
0.480796 1.841407 -0.399045 145 136 121
0.489291 1.839653 -0.398588 146 137 122
0.496686 1.835202 -0.397799 145 136 121
0.504194 1.831351 -0.397141 144 135 120
0.51164 1.827642 -0.39655 145 136 121
0.519322 1.824836 -0.396136 145 136 121
0.524684 1.816452 -0.394991 147 135 121
0.530152 1.808752 -0.393992 147 135 121
0.53681 1.804404 -0.393514 147 134 120
0.54534 1.804965 -0.393775 145 135 121
0.551977 1.801178 -0.393479 144 135 120
0.557107 1.794112 -0.392773 143 134 119
0.56309 1.789459 -0.392456 143 134 119
0.572624 1.793469 -0.393409 144 134 119
0.579317 1.791053 -0.393507 144 134 119
0.588145 1.79384 -0.39439 144 134 119
-0.864966 0.937643 -0.260695 155 147 136
-0.862838 0.941663 -0.261039 154 147 136
-0.858684 0.942844 -0.26105 154 148 136
-0.855708 0.945887 -0.261331 154 148 136
-0.854299 0.951419 -0.261961 154 148 136
-0.852484 0.956515 -0.262567 155 148 137
-0.85012 0.960948 -0.263121 157 149 138
-0.846809 0.964086 -0.263543 157 149 139
-0.841501 0.964268 -0.26362 156 149 138
-0.83763 0.966785 -0.264029 158 150 139
-0.835737 0.972546 -0.264887 158 150 139
-0.832063 0.975653 -0.265438 158 151 140
-0.828336 0.978807 -0.266027 158 151 141
-0.825762 0.983957 -0.266906 157 150 140
-0.822566 0.988252 -0.267706 157 151 140
-0.818449 0.991167 -0.268359 159 152 140
-0.814657 0.994738 -0.269126 159 151 140
-0.810755 0.998242 -0.269914 158 151 139
-0.808755 1.005097 -0.271164 158 152 140
-0.804564 1.008363 -0.271974 158 152 140
-0.800379 1.011737 -0.272822 157 151 139
-0.796366 1.015508 -0.273745 159 151 140
-0.792745 1.020074 -0.274793 159 151 140
-0.788459 1.023556 -0.275719 161 153 142
-0.784025 1.026853 -0.276638 160 153 142
-0.779713 1.030444 -0.277611 160 154 142
-0.778047 1.039008 -0.279264 161 155 143
-0.772684 1.040828 -0.280029 162 156 144
-0.768237 1.044407 -0.281041 163 156 145
-0.764289 1.048999 -0.282199 164 156 145
-0.760606 1.054181 -0.283446 164 156 145
-0.757476 1.060535 -0.28486 166 158 147
-0.753235 1.064797 -0.285997 166 158 147
-0.748973 1.069074 -0.287141 166 158 147
-0.744372 1.072721 -0.288202 166 160 148
-0.739578 1.076012 -0.289215 166 160 148
-0.735061 1.079903 -0.290312 167 161 149
-0.731014 1.084824 -0.291552 170 163 151
-0.728653 1.093397 -0.293302 170 164 152
-0.72386 1.09688 -0.294342 171 164 152
-0.71881 1.099828 -0.295304 172 164 153
-0.714431 1.104268 -0.296472 173 165 154
-0.710687 1.110176 -0.297846 173 165 154
-0.706131 1.114328 -0.298967 174 166 155
-0.7016 1.118574 -0.300098 175 167 156
-0.697128 1.123001 -0.30125 176 168 157
-0.693911 1.13043 -0.302828 176 168 157
-0.689686 1.135577 -0.304074 177 169 158
-0.684545 1.138576 -0.305006 177 169 158
-0.680078 1.143236 -0.306172 178 170 159
-0.675019 1.146479 -0.307126 178 170 159
-0.671857 1.154516 -0.30877 179 171 160
-0.666963 1.158281 -0.309788 180 172 161
-0.662186 1.16238 -0.310847 180 172 161
-0.658432 1.16921 -0.312301 180 172 161
-0.654515 1.175726 -0.313703 180 172 161
-0.649078 1.178255 -0.314513 182 174 163
-0.643584 1.180629 -0.315291 182 174 163
-0.638655 1.184572 -0.316294 183 175 164
-0.635875 1.19462 -0.318196 183 175 164
-0.630629 1.197842 -0.31908 184 176 165
-0.62573 1.202098 -0.32011 185 177 166
-0.621999 1.209862 -0.321658 185 177 166
-0.617209 1.214627 -0.322752 187 177 167
-0.614466 1.225698 -0.324786 186 177 167
-0.609096 1.228932 -0.325639 186 178 167
-0.602921 1.229675 -0.32611 186 178 167
-0.596987 1.231145 -0.326681 187 179 168
-0.593666 1.241073 -0.328524 189 179 169
-0.589019 1.246895 -0.329741 189 180 169
-0.583695 1.250577 -0.330628 188 180 169
-0.579156 1.256996 -0.331925 188 180 169
-0.574809 1.264244 -0.333342 188 180 169
-0.56926 1.267435 -0.334137 189 180 169
-0.563942 1.27151 -0.33506 190 180 170
-0.559349 1.278327 -0.336396 190 180 170
-0.5562 1.290714 -0.33858 190 180 170
-0.550797 1.294943 -0.339512 190 180 170
-0.544711 1.296631 -0.340047 190 182 171
-0.539203 1.300597 -0.340926 189 181 170
-0.53393 1.305611 -0.341961 190 182 171
-0.529444 1.313995 -0.34351 191 183 172
-0.523852 1.318032 -0.344384 191 183 172
-0.518066 1.321342 -0.345141 191 183 172
-0.513478 1.329973 -0.346715 193 183 173
-0.509513 1.341694 -0.348764 193 183 173
-0.503947 1.346576 -0.349751 193 183 173
-0.498296 1.351221 -0.350695 195 185 175
-0.492796 1.356741 -0.351771 195 185 175
-0.488291 1.367324 -0.35363 195 185 175
-0.482939 1.374122 -0.354897 196 186 176
-0.476995 1.378163 -0.35573 197 187 177
-0.471251 1.383397 -0.356745 197 187 177
-0.466829 1.395974 -0.358901 197 187 177
-0.460625 1.399291 -0.359608 198 188 178
-0.45452 1.403295 -0.360418 199 189 179
-0.44969 1.414917 -0.362415 199 189 179
-0.443616 1.419668 -0.363334 199 189 179
-0.437553 1.424706 -0.364293 200 190 180
-0.43145 1.429737 -0.365247 202 190 181
-0.425282 1.434592 -0.36617 203 191 181
-0.419197 1.440265 -0.367216 202 192 182
-0.414099 1.45318 -0.369396 205 192 183
-0.407869 1.458704 -0.370412 205 193 184
-0.401474 1.463325 -0.371281 206 194 185
-0.395294 1.469898 -0.372453 207 194 185
-0.389177 1.477423 -0.373772 208 195 186
-0.382966 1.484684 -0.375045 208 195 186
-0.376621 1.491311 -0.376214 209 196 187
-0.370276 1.498446 -0.37746 209 196 187
-0.363713 1.504074 -0.378463 210 197 188
-0.357094 1.50961 -0.379448 210 197 188
-0.350576 1.516672 -0.38067 210 197 188
-0.344016 1.523939 -0.38192 210 198 188
-0.337685 1.534591 -0.383701 212 198 189
-0.331219 1.544735 -0.385398 211 198 189
-0.324384 1.551251 -0.386517 210 197 188
-0.317596 1.559184 -0.387856 211 198 189
-0.311368 1.576434 -0.390665 210 197 188
-0.304368 1.583881 -0.391919 210 197 189
-0.297254 1.590492 -0.393035 210 197 189
-0.290371 1.602498 -0.395002 209 196 187
-0.283327 1.61341 -0.39679 209 196 188
-0.276052 1.621308 -0.398096 209 196 187
-0.268852 1.632907 -0.399983 209 196 187
-0.26167 1.647987 -0.402418 209 196 187
-0.25412 1.655458 -0.403641 207 194 186
-0.246576 1.665748 -0.405305 208 195 186
-0.239009 1.679414 -0.407499 208 195 186
-0.231407 1.698619 -0.410566 208 195 186
-0.223459 1.703335 -0.411329 208 195 186
-0.215476 1.709108 -0.412253 207 194 185
-0.20745 1.718538 -0.41375 207 194 185
-0.199288 1.749034 -0.418583 207 194 185
-0.191004 1.756344 -0.419731 206 193 184
-0.182644 1.76438 -0.420987 205 192 183
-0.174124 1.777596 -0.423057 205 192 183
-0.165611 1.784563 -0.424128 204 191 182
-0.156625 1.807482 -0.427721 204 191 182
-0.14776 1.819266 -0.42954 203 190 181
-0.138753 1.831918 -0.431487 204 191 182
-0.129725 1.84205 -0.433027 204 191 182
-0.12047 1.855128 -0.435024 203 190 181
-0.111438 1.861032 -0.435875 203 190 181
-0.10221 1.869513 -0.437125 201 188 179
-0.091838 1.896257 -0.441256 202 189 180
-0.082756 1.898369 -0.441477 201 188 179
-0.07303 1.909644 -0.443138 200 187 178
-0.063726 1.913509 -0.443616 200 187 178
-0.053625 1.927204 -0.445637 200 187 178
-0.043855 1.935161 -0.446739 202 189 180
-0.034161 1.941264 -0.447538 199 189 179
-0.024623 1.944915 -0.447937 198 187 178
-0.014784 1.951265 -0.448751 196 186 176
-0.00421 1.96424 -0.450597 194 184 174
0.005783 1.970415 -0.451358 193 183 174
0.017578 1.992395 -0.454593 193 183 173
0.027848 1.999092 -0.455408 193 183 173
0.03841 2.007603 -0.456494 190 180 170
0.048987 2.015463 -0.457464 190 180 170
0.059761 2.02416 -0.45855 190 180 170
0.070432 2.03134 -0.459383 189 178 170
0.082353 2.046966 -0.461524 189 178 169
0.09318 2.053754 -0.462264 190 178 170
0.103376 2.05569 -0.46223 189 177 169
0.114132 2.061059 -0.462718 187 177 168
0.124768 2.065198 -0.462999 187 177 168
0.135488 2.069483 -0.463286 186 176 167
0.145789 2.07087 -0.463107 186 176 167
0.156199 2.072684 -0.46298 180 170 161
0.166372 2.072913 -0.462592 162 150 139
0.17557 2.06761 -0.461332 159 147 134
0.184933 2.06333 -0.460219 158 146 132
0.194539 2.060414 -0.459303 155 146 131
0.203844 2.055966 -0.458139 156 146 131
0.212838 2.050049 -0.456736 156 144 130
0.221753 2.043894 -0.455285 155 144 130
0.230447 2.036846 -0.453687 155 144 130
0.239528 2.031786 -0.452384 154 144 130
0.24868 2.027146 -0.451135 154 143 131
0.258052 2.023563 -0.450036 153 143 131
0.26629 2.015084 -0.448182 153 143 131
0.273768 2.003608 -0.445864 153 143 130
0.282173 1.996357 -0.444184 152 142 130
0.291075 1.991315 -0.442832 152 142 130
0.300055 1.986677 -0.441536 152 142 130
0.307759 1.977123 -0.439491 152 142 130
0.315774 1.969035 -0.437666 151 141 129
0.324172 1.962612 -0.43609 151 141 129
0.332373 1.955616 -0.434427 151 141 129
0.34069 1.949225 -0.432855 151 141 129
0.348923 1.9427 -0.431266 151 141 128
0.357461 1.937415 -0.429865 150 141 126
0.366149 1.932783 -0.428567 150 141 126
0.373932 1.925212 -0.426838 150 141 126
0.381557 1.917351 -0.425076 150 141 126
0.390061 1.912606 -0.423788 149 140 126
0.398317 1.907214 -0.422417 150 140 127
0.40508 1.897292 -0.420394 149 139 125
0.413489 1.892827 -0.419194 149 139 127
0.421883 1.888492 -0.418034 148 138 126
0.429497 1.881988 -0.416578 148 138 126
0.436475 1.873859 -0.41491 148 138 126
0.443915 1.867402 -0.413517 147 137 125
0.452044 1.863216 -0.412486 146 136 124
0.460598 1.860464 -0.411696 146 136 124
0.468511 1.856116 -0.410709 146 136 124
0.474948 1.847951 -0.409206 145 136 122
0.482338 1.842757 -0.408175 146 137 122
0.490659 1.840365 -0.407592 145 136 121
0.498505 1.836953 -0.406906 145 136 121
0.505864 1.83254 -0.40612 145 136 121
0.51347 1.829076 -0.405519 144 135 120
0.520019 1.823207 -0.404619 144 135 120
0.526123 1.816568 -0.403657 147 135 121
0.530751 1.806632 -0.402267 146 134 120
0.537603 1.802639 -0.401789 146 135 120
0.546041 1.802839 -0.401969 145 135 121
0.552797 1.799221 -0.401648 144 135 120
0.55902 1.794651 -0.401239 144 135 120
0.564967 1.789772 -0.400836 143 134 119
0.570819 1.785018 -0.4005 145 134 120
0.577463 1.782441 -0.40053 145 133 119
0.579417 1.76941 -0.399083 144 134 119
-0.872205 0.945848 -0.266581 154 146 135
-0.863643 0.940567 -0.265721 154 147 136
-0.859224 0.941403 -0.265708 155 148 136
-0.855491 0.943363 -0.265875 155 148 136
-0.853826 0.94854 -0.266501 155 149 137
-0.853124 0.955344 -0.267376 156 148 137
-0.850854 0.959964 -0.267993 157 149 138
-0.847911 0.963717 -0.268528 156 148 138
-0.843768 0.965765 -0.268869 156 148 138
-0.839999 0.968514 -0.269337 157 150 138
-0.837209 0.972934 -0.27006 157 149 139
-0.833137 0.975472 -0.270566 158 150 140
-0.828971 0.977982 -0.271099 157 150 140
-0.825775 0.982174 -0.271888 157 150 140
-0.823433 0.987906 -0.272916 157 151 140
-0.819573 0.991303 -0.27366 159 152 140
-0.814961 0.993566 -0.274281 159 151 140
-0.811194 0.997343 -0.275133 157 151 139
-0.807898 1.002037 -0.276135 157 151 139
-0.804933 1.00743 -0.277258 158 152 140
-0.800963 1.01122 -0.278187 158 151 140
-0.796806 1.014784 -0.279107 160 152 141
-0.792906 1.018894 -0.280122 159 151 140
-0.788829 1.022786 -0.281125 160 152 141
-0.784573 1.026441 -0.282113 160 152 141
-0.781701 1.032702 -0.283477 159 153 141
-0.778643 1.03875 -0.284827 160 154 142
-0.77426 1.04244 -0.285862 161 155 143
-0.769431 1.04535 -0.286799 163 156 144
-0.764489 1.048084 -0.287719 163 156 145
-0.761887 1.055375 -0.289287 163 156 145
-0.75763 1.059563 -0.290425 164 157 146
-0.753312 1.063687 -0.29156 166 158 147
-0.749433 1.068745 -0.292832 166 159 147
-0.744898 1.072544 -0.293927 167 160 149
-0.740392 1.076445 -0.295038 168 161 149
-0.736054 1.080734 -0.296206 168 162 150
-0.732113 1.085905 -0.2975 168 162 150
-0.728164 1.091125 -0.298802 169 163 151
-0.724243 1.096474 -0.300121 172 164 153
-0.719605 1.100331 -0.301222 172 164 153
-0.715567 1.105543 -0.302518 173 165 154
-0.711233 1.110159 -0.303723 173 165 154
-0.705924 1.112616 -0.304607 174 166 155
-0.700472 1.114743 -0.305436 175 167 156
-0.697793 1.123294 -0.307209 177 169 158
-0.693203 1.127501 -0.308336 177 169 158
-0.688587 1.131688 -0.309455 177 169 158
-0.684618 1.137475 -0.310806 177 169 158
-0.679812 1.141298 -0.311859 179 171 160
-0.675862 1.147275 -0.313228 178 170 159
-0.671648 1.152681 -0.314507 179 171 160
-0.667407 1.158095 -0.315781 178 170 159
-0.66318 1.163623 -0.317067 180 172 161
-0.659787 1.171421 -0.318692 180 172 161
-0.65503 1.175741 -0.319783 181 173 162
-0.649796 1.178827 -0.32068 182 174 163
-0.644686 1.18227 -0.321623 183 175 164
-0.639744 1.18621 -0.322636 183 175 164
-0.634754 1.190061 -0.323627 183 175 164
-0.631048 1.197626 -0.325183 184 176 165
-0.625963 1.201349 -0.326142 184 176 165
-0.622443 1.209727 -0.327813 185 176 166
-0.617531 1.214133 -0.328865 186 176 166
-0.61517 1.226359 -0.331123 187 177 167
-0.608895 1.226826 -0.331553 186 178 167
-0.6031 1.228741 -0.332199 187 179 168
-0.59774 1.232042 -0.333054 188 180 169
-0.591851 1.233668 -0.33364 188 180 169
-0.588317 1.243043 -0.335431 188 180 169
-0.584263 1.250928 -0.336984 188 180 169
-0.578592 1.25351 -0.337701 189 181 170
-0.57326 1.25729 -0.3386 189 181 170
-0.570838 1.27141 -0.341119 188 180 169
-0.563869 1.269644 -0.341134 188 180 169
-0.558416 1.273293 -0.341995 189 181 170
-0.555542 1.286619 -0.344379 190 181 171
-0.55003 1.290377 -0.345247 190 182 171
-0.544984 1.29602 -0.346408 190 182 171
-0.539418 1.299769 -0.347264 190 182 171
-0.534263 1.305261 -0.348391 190 182 171
-0.529652 1.313141 -0.349893 191 183 172
-0.525004 1.321134 -0.351409 190 182 171
-0.519153 1.324259 -0.352146 192 183 172
-0.513476 1.328217 -0.35301 193 183 173
-0.50965 1.340539 -0.355204 193 183 173
-0.50394 1.344764 -0.356102 194 184 174
-0.498081 1.348426 -0.356905 194 184 174
-0.49338 1.357722 -0.358605 195 185 175
-0.487326 1.36079 -0.359304 195 185 175
-0.482318 1.369178 -0.360851 196 186 176
-0.477053 1.376606 -0.362241 196 186 176
-0.471457 1.382613 -0.363399 197 187 177
-0.466741 1.393612 -0.365355 197 187 177
-0.460843 1.398606 -0.366343 198 188 178
-0.454798 1.40297 -0.367224 199 189 179
-0.449457 1.411633 -0.368794 199 189 179
-0.443362 1.416207 -0.369701 200 190 180
-0.437608 1.423097 -0.370978 200 190 180
-0.43194 1.430897 -0.372399 201 191 181
-0.425683 1.435257 -0.373259 202 192 182
-0.419586 1.440916 -0.374326 202 192 182
-0.413956 1.450171 -0.375971 203 193 184
-0.407812 1.456272 -0.377101 203 193 184
-0.401554 1.461889 -0.378149 205 195 185
-0.395749 1.471388 -0.379824 206 194 185
-0.389462 1.47765 -0.380969 209 196 187
-0.38331 1.485487 -0.382366 209 196 187
-0.376825 1.490989 -0.383381 209 196 187
-0.370455 1.497953 -0.384629 209 196 187
-0.363973 1.504407 -0.38579 210 197 188
-0.357283 1.509333 -0.386699 211 198 189
-0.350785 1.516684 -0.387998 211 198 189
-0.344296 1.524825 -0.389422 210 198 188
-0.337717 1.532729 -0.390804 211 197 189
-0.33134 1.543967 -0.392724 211 198 189
-0.324663 1.552591 -0.394215 211 198 189
-0.317979 1.562159 -0.395856 211 198 189
-0.31131 1.573207 -0.397734 210 197 189
-0.304483 1.583302 -0.399452 210 197 189
-0.297569 1.59345 -0.401175 210 197 188
-0.290727 1.606626 -0.403388 209 196 187
-0.283379 1.611891 -0.404305 209 196 188
-0.276273 1.623638 -0.406275 209 196 188
-0.269038 1.634818 -0.408148 208 195 187
-0.261673 1.645178 -0.409882 209 196 187
-0.254232 1.656103 -0.411704 209 196 187
-0.246549 1.661435 -0.412606 209 196 187
-0.239046 1.677623 -0.415277 208 195 186
-0.231458 1.697657 -0.41857 208 195 186
-0.223529 1.704388 -0.419684 207 194 185
-0.215531 1.709944 -0.4206 207 194 185
-0.207549 1.743011 -0.426005 207 194 185
-0.199324 1.747165 -0.426679 207 194 185
-0.19102 1.75737 -0.428335 206 193 184
-0.182624 1.767306 -0.42994 205 192 183
-0.174083 1.780472 -0.432066 204 191 182
-0.1654 1.794543 -0.434332 205 192 183
-0.156575 1.809004 -0.436653 204 191 182
-0.147633 1.822802 -0.438858 204 191 182
-0.138623 1.834814 -0.440764 204 191 182
-0.129743 1.840624 -0.441648 203 190 181
-0.120468 1.854094 -0.443774 203 190 181
-0.110705 1.874946 -0.447094 202 189 180
-0.101632 1.879135 -0.447686 202 189 180
-0.091373 1.903006 -0.451479 202 189 180
-0.082262 1.904944 -0.451685 201 188 179
-0.07311 1.90713 -0.451921 200 187 178
-0.064284 1.904415 -0.451351 198 185 177
-0.055711 1.898633 -0.450271 189 176 168
-0.044798 1.922172 -0.453953 190 180 171
-0.034218 1.93918 -0.45656 191 181 172
-0.024109 1.949154 -0.45801 180 171 163
-0.014805 1.949605 -0.457901 169 160 153
-0.004263 1.962268 -0.459763 59 50 42
0.007306 1.983473 -0.462998 94 85 78
0.01785 1.993404 -0.464389 179 170 161
0.028017 1.999096 -0.465079 191 181 172
0.038745 2.008937 -0.466428 190 180 171
0.049494 2.01808 -0.467649 189 179 169
0.060081 2.025166 -0.468523 189 179 169
0.070904 2.033401 -0.469569 189 178 168
0.081946 2.042529 -0.470742 189 178 168
0.092956 2.050696 -0.471746 187 177 167
0.103723 2.056559 -0.472362 186 176 166
0.114017 2.058825 -0.472385 186 176 166
0.12503 2.065393 -0.473084 184 174 165
0.135651 2.06902 -0.473295 184 174 165
0.14605 2.070973 -0.473222 183 173 164
0.15628 2.071697 -0.472938 178 168 158
0.166243 2.070728 -0.472368 159 148 136
0.176201 2.069646 -0.471767 156 146 132
0.185003 2.062272 -0.470147 156 146 131
0.19449 2.058728 -0.469127 154 145 130
0.203369 2.052114 -0.467606 157 145 131
0.212524 2.047066 -0.466322 156 144 130
0.221694 2.042197 -0.465055 155 143 130
0.230556 2.035956 -0.46356 154 143 130
0.239579 2.030615 -0.462197 153 143 130
0.249028 2.027319 -0.461146 153 143 130
0.257414 2.019322 -0.459343 153 143 130
0.265291 2.009334 -0.457218 153 143 130
0.274041 2.003356 -0.455717 152 142 130
0.282356 1.995698 -0.453945 152 142 130
0.29132 1.990882 -0.452612 152 142 130
0.299904 1.984628 -0.451046 151 141 129
0.307144 1.973258 -0.448678 151 141 129
0.315608 1.966924 -0.447093 151 141 129
0.32367 1.959227 -0.445293 151 141 129
0.332205 1.953473 -0.443793 151 141 128
0.340968 1.948684 -0.442441 150 140 128
0.349325 1.942548 -0.440882 150 140 127
0.357685 1.936578 -0.439351 150 141 128
0.366224 1.931376 -0.437942 149 140 125
0.374419 1.925151 -0.436381 150 141 125
0.382066 1.917282 -0.434577 150 140 126
0.390479 1.912156 -0.433203 149 139 127
0.398717 1.906629 -0.43178 149 139 127
0.405474 1.896604 -0.429686 149 139 127
0.413459 1.89073 -0.428242 149 139 127
0.421536 1.885354 -0.426894 149 139 127
0.429019 1.878395 -0.425326 148 138 126
0.43689 1.872855 -0.423999 147 137 125
0.444703 1.867387 -0.422708 147 137 125
0.45272 1.86275 -0.421573 145 135 123
0.461418 1.86028 -0.420795 146 136 124
0.468887 1.854559 -0.419561 146 136 124
0.476412 1.849283 -0.418431 145 135 122
0.483467 1.843019 -0.417192 144 135 121
0.490941 1.838202 -0.416212 145 136 121
0.49887 1.834891 -0.415499 145 136 121
0.507339 1.833258 -0.415082 145 136 121
0.513624 1.826225 -0.413904 143 134 119
0.52027 1.820489 -0.412967 144 135 120
0.526542 1.814164 -0.411992 143 134 119
0.532464 1.80734 -0.410992 146 134 120
0.538057 1.800093 -0.409978 144 135 120
0.545076 1.796717 -0.409594 145 135 120
0.553692 1.797498 -0.409882 143 134 119
0.560451 1.794084 -0.409594 143 134 119
0.567643 1.792011 -0.409558 142 133 118
0.572225 1.784143 -0.408702 143 134 119
0.577194 1.777574 -0.408089 142 133 118
0.588103 1.78497 -0.409625 143 134 119
-0.869661 0.939861 -0.270619 154 146 135
-0.866999 0.943211 -0.270942 154 147 135
-0.862551 0.94408 -0.270952 154 147 135
-0.856297 0.942381 -0.270639 154 148 136
-0.854768 0.947802 -0.27134 155 149 137
-0.852765 0.952689 -0.272 155 148 136
-0.851372 0.958672 -0.272844 156 148 137
-0.848608 0.962745 -0.273457 156 148 137
-0.845633 0.966648 -0.274079 156 148 138
-0.84197 0.969631 -0.274608 155 149 137
-0.838374 0.972852 -0.275202 157 149 139
-0.833945 0.974885 -0.275663 157 149 139
-0.82864 0.975627 -0.275977 157 150 139
-0.824937 0.979037 -0.276691 156 150 138
-0.823865 0.986865 -0.278051 157 151 139
-0.81977 0.989922 -0.278776 157 151 139
-0.815625 0.993009 -0.279533 157 151 139
-0.812138 0.997304 -0.280486 157 151 139
-0.807332 0.999489 -0.281168 158 152 140
-0.803779 1.003899 -0.282186 158 152 140
-0.801584 1.010778 -0.283577 157 151 139
-0.797322 1.014202 -0.284501 158 150 139
-0.792804 1.017259 -0.285391 159 151 140
-0.789312 1.022222 -0.28657 159 151 140
-0.785521 1.026754 -0.287705 159 152 141
-0.78151 1.030976 -0.28881 159 153 141
-0.778387 1.036919 -0.290175 160 154 142
-0.774481 1.041515 -0.291359 161 155 143
-0.769707 1.044552 -0.292327 161 155 143
-0.765698 1.049092 -0.293521 162 156 144
-0.762478 1.055227 -0.294955 163 157 145
-0.758903 1.060772 -0.29631 164 158 146
-0.754105 1.063988 -0.297329 165 158 147
-0.749238 1.067093 -0.298333 166 158 147
-0.745376 1.072259 -0.299643 167 159 148
-0.741212 1.076876 -0.300874 169 161 150
-0.737933 1.083384 -0.302387 169 161 150
-0.733101 1.086734 -0.303429 169 162 151
-0.72831 1.09019 -0.304485 172 163 152
-0.724442 1.095656 -0.305841 172 164 153
-0.720372 1.100753 -0.307139 172 165 153
-0.715918 1.105066 -0.308316 173 165 154
-0.711751 1.110061 -0.309593 173 165 154
-0.706858 1.113471 -0.310625 175 167 156
-0.700997 1.114684 -0.311315 176 168 157
-0.698445 1.123534 -0.313168 176 168 157
-0.693689 1.127365 -0.314248 176 168 157
-0.689371 1.132267 -0.315488 177 169 158
-0.684436 1.135739 -0.316501 177 169 158
-0.680207 1.140959 -0.317778 178 170 159
-0.676144 1.146659 -0.319124 178 170 159
-0.671833 1.151817 -0.320381 179 171 160
-0.667848 1.157878 -0.321772 179 171 160
-0.663893 1.164112 -0.323186 180 172 161
-0.659289 1.168751 -0.324344 180 172 161
-0.654911 1.174048 -0.325599 182 174 163
-0.650821 1.180201 -0.326983 182 174 163
-0.64579 1.18389 -0.327973 183 175 164
-0.640376 1.186552 -0.328793 183 175 164
-0.636388 1.193237 -0.330243 183 175 164
-0.631413 1.197233 -0.33126 184 176 165
-0.626321 1.200938 -0.332225 184 175 164
-0.622527 1.208511 -0.333799 187 177 167
-0.618045 1.214191 -0.335066 187 177 167
-0.613757 1.22057 -0.33644 187 177 167
-0.608226 1.223253 -0.337216 187 179 168
-0.603106 1.227244 -0.338194 187 179 168
-0.598439 1.232736 -0.339407 187 179 168
-0.592446 1.234055 -0.339943 189 180 170
-0.590742 1.249462 -0.342744 188 180 169
-0.585775 1.254411 -0.343854 188 180 169
-0.579596 1.25534 -0.344309 188 180 169
-0.572927 1.254544 -0.344476 189 181 170
-0.567779 1.259013 -0.34549 189 181 170
-0.565462 1.273732 -0.348163 189 181 170
-0.559641 1.276128 -0.34883 189 181 170
-0.554736 1.281964 -0.350052 189 181 170
-0.549917 1.288279 -0.351346 190 182 171
-0.545368 1.295819 -0.352836 190 182 171
-0.539932 1.300097 -0.353789 190 182 171
-0.535023 1.306601 -0.355101 190 182 171
-0.530886 1.316471 -0.35696 191 183 172
-0.525856 1.322951 -0.35826 191 182 172
-0.520402 1.327833 -0.359293 192 182 170
-0.514883 1.332584 -0.3603 192 182 172
-0.509874 1.339752 -0.3617 194 184 174
-0.504188 1.344097 -0.362631 194 184 174
-0.498488 1.348512 -0.363569 194 184 174
-0.493703 1.357433 -0.365246 195 185 175
-0.488005 1.362268 -0.366245 195 185 175
-0.482176 1.366621 -0.36716 197 187 177
-0.477282 1.375915 -0.368887 197 187 177
-0.471481 1.380863 -0.369893 197 187 177
-0.466379 1.38977 -0.371549 198 188 178
-0.460678 1.395782 -0.372723 198 188 178
-0.454873 1.401478 -0.373841 198 188 178
-0.449414 1.409448 -0.375332 200 190 180
-0.443597 1.415668 -0.376529 200 190 180
-0.437541 1.420721 -0.377528 200 190 180
-0.431989 1.429228 -0.379098 201 191 182
-0.425992 1.435294 -0.380259 203 193 184
-0.420024 1.441884 -0.381503 203 193 184
-0.413948 1.448096 -0.38268 203 193 184
-0.407756 1.453832 -0.383774 204 194 185
-0.401683 1.46081 -0.385072 205 194 185
-0.395997 1.471251 -0.386945 207 194 185
-0.389702 1.477509 -0.388115 208 195 186
-0.383389 1.484055 -0.38933 209 196 187
-0.377105 1.491326 -0.390663 210 197 188
-0.370467 1.495937 -0.391547 210 197 188
-0.364128 1.503744 -0.392962 210 197 188
-0.357681 1.511139 -0.394304 210 197 188
-0.351003 1.516774 -0.395348 211 198 189
-0.344691 1.526954 -0.397149 211 198 189
-0.338184 1.535909 -0.398742 211 198 189
-0.33169 1.545986 -0.400519 211 198 190
-0.325019 1.554919 -0.4021 211 198 189
-0.318195 1.562825 -0.403505 210 197 188
-0.311378 1.571858 -0.405096 209 196 188
-0.304459 1.580522 -0.40662 210 197 189
-0.297644 1.592291 -0.408661 209 196 187
-0.290692 1.603478 -0.4106 209 196 187
-0.283589 1.613627 -0.412361 209 196 187
-0.276505 1.626267 -0.414536 209 196 187
-0.269185 1.635816 -0.416187 208 195 187
-0.262064 1.653522 -0.419204 208 195 187
-0.254329 1.656306 -0.419708 209 196 187
-0.246734 1.665478 -0.421281 209 196 187
-0.239334 1.68785 -0.425067 208 195 186
-0.231519 1.697514 -0.426712 208 195 186
-0.22359 1.704893 -0.427966 208 195 186
-0.215585 1.711019 -0.429005 207 194 185
-0.20755 1.728311 -0.431914 207 194 185
-0.199365 1.741306 -0.434095 207 194 185
-0.19106 1.754289 -0.436267 207 194 185
-0.182571 1.772755 -0.439354 208 195 186
-0.174075 1.781027 -0.440721 207 194 185
-0.165338 1.797128 -0.443396 206 193 184
-0.156636 1.805916 -0.444834 204 191 182
-0.147323 1.832216 -0.449207 203 190 181
-0.138607 1.834262 -0.449497 202 189 180
-0.129643 1.842028 -0.450739 202 189 180
-0.120462 1.853026 -0.452516 202 189 180
-0.110942 1.868791 -0.455084 202 189 180
-0.101165 1.886546 -0.457977 202 189 180
-0.091631 1.897184 -0.459665 201 188 179
-0.082068 1.906605 -0.461139 201 188 179
-0.073437 1.900833 -0.460055 199 186 177
-0.06479 1.895938 -0.45911 196 183 174
-0.056644 1.885008 -0.457145 183 170 161
-0.043741 1.933644 -0.465148 132 119 111
-0.033141 1.950162 -0.467757 36 25 19
-0.022987 1.959968 -0.469231 33 24 18
-0.012961 1.967363 -0.470289 35 26 21
-0.002358 1.979728 -0.472165 56 47 41
0.008273 1.991129 -0.473868 98 87 80
0.018313 1.996063 -0.474477 179 169 160
0.028563 2.002302 -0.475292 190 180 170
0.039302 2.012042 -0.476677 189 179 170
0.049449 2.016146 -0.477109 188 178 169
0.060489 2.026767 -0.478612 189 179 169
0.071178 2.033878 -0.479517 187 177 167
0.081945 2.040948 -0.4804 187 177 167
0.092969 2.049217 -0.481467 185 175 165
0.103748 2.055162 -0.482133 185 175 165
0.114579 2.06095 -0.482758 184 174 164
0.12552 2.066955 -0.483404 183 173 163
0.136101 2.070248 -0.483585 183 173 163
0.14649 2.072068 -0.483508 182 172 162
0.156612 2.072091 -0.48312 174 164 154
0.166506 2.070691 -0.482484 158 148 136
0.176287 2.068598 -0.481719 154 146 131
0.185607 2.064007 -0.480531 154 145 130
0.194701 2.058327 -0.479152 155 145 130
0.203889 2.053277 -0.477864 155 143 129
0.212613 2.046024 -0.476204 154 143 129
0.221789 2.041178 -0.474926 154 143 129
0.230982 2.036503 -0.473666 153 143 129
0.239785 2.030102 -0.472112 153 143 129
0.248073 2.02152 -0.470194 153 142 129
0.255898 2.011133 -0.467973 152 142 130
0.264931 2.006305 -0.466648 152 142 130
0.272856 1.996855 -0.464565 152 142 129
0.28189 1.992288 -0.463264 152 142 129
0.290827 1.987395 -0.461903 151 141 129
0.298744 1.978512 -0.459891 151 141 129
0.307238 1.972128 -0.458278 151 141 129
0.315743 1.96593 -0.456689 150 141 128
0.324495 1.960799 -0.455268 150 140 128
0.332718 1.953815 -0.453547 150 140 128
0.341254 1.948139 -0.452034 150 140 128
0.34989 1.942948 -0.450598 150 140 128
0.357845 1.935494 -0.448803 150 141 127
0.366362 1.930169 -0.44735 149 140 125
0.374218 1.922749 -0.44557 149 140 125
0.381896 1.914954 -0.443738 148 138 126
0.39027 1.909658 -0.44231 148 138 126
0.398531 1.904158 -0.440861 148 138 126
0.406136 1.896762 -0.439127 148 138 126
0.413615 1.889219 -0.437385 147 137 125
0.421163 1.882149 -0.435737 148 138 126
0.429183 1.876751 -0.43437 147 137 125
0.437359 1.872029 -0.433132 147 137 125
0.445465 1.86731 -0.431919 147 137 125
0.453419 1.862372 -0.4307 145 135 123
0.461048 1.85675 -0.429404 146 136 124
0.469064 1.852478 -0.42835 145 135 123
0.476641 1.847242 -0.427182 146 136 124
0.484256 1.842389 -0.426111 145 135 123
0.490949 1.83535 -0.424741 145 135 122
0.498915 1.832029 -0.423988 144 135 120
0.506905 1.829032 -0.423328 144 135 120
0.514228 1.824587 -0.42249 144 135 120
0.521092 1.819281 -0.421566 144 135 121
0.5276 1.813421 -0.420605 144 134 121
0.533084 1.805376 -0.419355 144 133 120
0.53897 1.798732 -0.418372 144 134 120
0.547611 1.799164 -0.418529 144 134 120
0.554412 1.795408 -0.418092 143 134 119
0.562128 1.794152 -0.41809 143 134 119
0.568685 1.790445 -0.417761 143 134 119
0.575403 1.78744 -0.417591 142 133 118
0.58036 1.780688 -0.416889 142 133 117
0.586159 1.776243 -0.416592 142 133 118
-0.866448 0.932946 -0.274497 153 145 134
-0.868552 0.943231 -0.275846 153 145 134
-0.865691 0.946484 -0.276216 153 146 135
-0.861328 0.947663 -0.276321 154 147 135
-0.855787 0.947196 -0.276222 153 147 135
-0.852278 0.949868 -0.276604 154 147 136
-0.850478 0.955261 -0.277408 155 147 136
-0.849348 0.961858 -0.278418 155 148 137
-0.84683 0.966514 -0.279182 155 148 137
-0.84308 0.969421 -0.279728 155 149 137
-0.83884 0.971688 -0.280215 155 148 138
-0.83425 0.973519 -0.28067 156 149 139
-0.829109 0.974574 -0.281045 156 149 139
-0.826233 0.979365 -0.281987 155 149 138
-0.8237 0.984868 -0.283062 156 150 138
-0.820653 0.989687 -0.284067 156 150 138
-0.816672 0.993099 -0.284896 156 150 138
-0.813093 0.997295 -0.285865 157 150 139
-0.808896 1.000567 -0.286724 157 151 139
-0.80517 1.004741 -0.287738 157 151 139
-0.802013 1.010008 -0.288934 157 151 139
-0.797908 1.013748 -0.289926 157 150 138
-0.79278 1.01577 -0.290682 159 151 140
-0.789102 1.020426 -0.291844 159 151 140
-0.786607 1.027314 -0.293352 160 152 141
-0.782215 1.030887 -0.294382 160 152 141
-0.778413 1.035609 -0.295596 160 154 142
-0.774051 1.039374 -0.296677 160 154 142
-0.770066 1.043909 -0.297882 161 155 143
-0.766516 1.049346 -0.299231 162 156 144
-0.763985 1.056838 -0.300899 163 157 145
-0.759586 1.060819 -0.302042 164 158 146
-0.754609 1.063706 -0.303021 164 158 146
-0.749573 1.066494 -0.303986 167 159 148
-0.746305 1.072872 -0.305502 167 159 148
-0.742749 1.078761 -0.306945 168 160 149
-0.737987 1.082236 -0.308017 170 162 151
-0.734594 1.088604 -0.309535 170 162 151
-0.729115 1.090642 -0.310381 171 163 152
-0.724394 1.094292 -0.311473 171 165 153
-0.720618 1.100024 -0.312887 171 165 153
-0.71654 1.105168 -0.314206 172 166 154
-0.712361 1.110147 -0.315497 174 166 155
-0.707315 1.113226 -0.316483 174 166 155
-0.702712 1.117327 -0.317626 175 167 156
-0.699023 1.12358 -0.319104 176 168 157
-0.694869 1.128834 -0.320419 177 169 158
-0.690086 1.132659 -0.321502 177 169 158
-0.685031 1.135858 -0.322478 177 169 158
-0.680039 1.139222 -0.323474 178 170 159
-0.676254 1.145594 -0.324946 178 170 159
-0.672153 1.151273 -0.326301 179 171 160
-0.668828 1.15901 -0.327983 179 171 160
-0.664045 1.16313 -0.329076 180 172 161
-0.65919 1.167106 -0.33014 181 173 162
-0.65498 1.172831 -0.33148 182 174 163
-0.651173 1.179735 -0.333006 183 175 164
-0.646222 1.183646 -0.334039 183 175 164
-0.641278 1.187618 -0.335076 184 176 165
-0.636353 1.19169 -0.336122 183 175 164
-0.631183 1.195117 -0.337056 185 175 165
-0.626818 1.200907 -0.338371 185 175 165
-0.623062 1.208597 -0.339992 185 175 165
-0.6178 1.211959 -0.340896 186 176 166
-0.61291 1.216489 -0.341986 187 177 167
-0.607904 1.220735 -0.343022 187 179 168
-0.603815 1.227924 -0.34454 188 180 169
-0.598704 1.232028 -0.345541 187 179 168
-0.592742 1.233452 -0.346091 188 179 169
-0.591456 1.250223 -0.349186 188 180 169
-0.585847 1.253053 -0.349959 188 180 169
-0.580511 1.256842 -0.350886 188 180 169
-0.574781 1.259338 -0.35159 188 180 169
-0.571131 1.26918 -0.353516 189 181 170
-0.565326 1.271593 -0.354196 189 181 170
-0.560936 1.279191 -0.355738 189 181 170
-0.555652 1.283689 -0.356756 189 181 170
-0.550276 1.287945 -0.357728 191 183 172
-0.54543 1.294349 -0.359056 190 182 171
-0.540578 1.30092 -0.360408 190 182 170
-0.537277 1.313907 -0.362837 190 182 171
-0.53164 1.317802 -0.363729 190 182 169
-0.52609 1.322164 -0.364696 191 182 172
-0.520599 1.326898 -0.36572 193 183 172
-0.514567 1.329417 -0.366365 193 183 173
-0.510351 1.340065 -0.368382 193 183 173
-0.504763 1.344893 -0.36941 193 183 173
-0.499374 1.350804 -0.370616 194 184 174
-0.493611 1.35515 -0.371553 195 185 175
-0.489176 1.36611 -0.37361 196 186 176
-0.483334 1.370525 -0.37455 196 186 176
-0.477912 1.377249 -0.37588 197 187 177
-0.471793 1.380604 -0.376632 198 188 178
-0.466036 1.386014 -0.37773 198 188 179
-0.460261 1.391562 -0.378847 198 188 178
-0.455388 1.402456 -0.380873 199 189 179
-0.449785 1.409655 -0.382266 200 190 180
-0.443867 1.415322 -0.383393 200 190 180
-0.437908 1.421011 -0.38452 200 190 180
-0.432052 1.427643 -0.385805 201 191 182
-0.426244 1.43494 -0.3872 202 192 183
-0.420186 1.44096 -0.388374 202 192 183
-0.414434 1.449457 -0.389968 203 193 184
-0.408059 1.453979 -0.390877 204 194 184
-0.401706 1.458928 -0.391856 207 194 185
-0.395978 1.469027 -0.393715 206 195 185
-0.389748 1.475792 -0.394998 206 196 186
-0.383578 1.483534 -0.396446 209 196 187
-0.377186 1.489916 -0.397657 209 196 187
-0.370841 1.497207 -0.399021 210 197 188
-0.364579 1.505877 -0.400618 211 198 189
-0.35793 1.511451 -0.401679 210 197 188
-0.351689 1.521748 -0.40355 211 198 189
-0.345078 1.528994 -0.404891 211 198 189
-0.338403 1.536224 -0.406226 211 198 189
-0.332027 1.547861 -0.408318 211 198 189
-0.325206 1.555078 -0.409643 211 198 189
-0.318486 1.564537 -0.411351 210 197 188
-0.311451 1.570601 -0.41247 210 197 188
-0.304501 1.578819 -0.413956 209 196 188
-0.297662 1.590193 -0.415984 209 196 188
-0.29063 1.599854 -0.417711 209 196 188
-0.283761 1.614625 -0.420316 210 197 188
-0.276578 1.62531 -0.422212 209 196 188
-0.26909 1.63076 -0.423199 209 196 188
-0.262077 1.651128 -0.426759 209 196 187
-0.254513 1.659483 -0.428238 208 195 186
-0.247082 1.675974 -0.431118 208 195 186
-0.23929 1.682479 -0.432268 208 195 186
-0.23139 1.685969 -0.432891 211 198 189
-0.223614 1.702569 -0.435774 212 199 190
-0.215639 1.712731 -0.437539 211 198 189
-0.207578 1.726371 -0.4399 212 199 190
-0.199408 1.73283 -0.441013 209 196 187
-0.191124 1.747054 -0.443462 208 196 186
-0.182584 1.772067 -0.447769 206 194 185
-0.174089 1.779916 -0.449103 204 192 182
-0.16558 1.784863 -0.449928 205 192 183
-0.156718 1.801815 -0.45282 205 192 183
-0.147434 1.827458 -0.457207 203 190 181
-0.138454 1.837444 -0.458879 202 189 180
-0.129484 1.844766 -0.460084 203 190 181
-0.120487 1.851106 -0.461111 202 189 180
-0.110919 1.867839 -0.463924 202 189 180
-0.101116 1.885978 -0.46697 201 188 179
-0.091922 1.890653 -0.467683 201 188 179
-0.082773 1.893845 -0.46813 200 187 178
-0.073145 1.903599 -0.469701 199 186 177
-0.065221 1.888397 -0.466959 196 183 174
-0.05665 1.883368 -0.465964 181 168 159
-0.044152 1.926999 -0.47334 136 125 116
-0.033437 1.945096 -0.476305 153 142 136
-0.021713 1.972343 -0.480832 126 117 110
-0.013057 1.964713 -0.479345 186 177 168
-0.004729 1.954429 -0.477393 184 174 165
0.008761 1.994111 -0.484016 136 126 116
0.01902 2.00084 -0.484962 181 171 161
0.029035 2.00476 -0.485414 190 180 170
0.03926 2.010023 -0.486084 189 179 170
0.049955 2.018568 -0.487304 188 178 169
0.06062 2.026123 -0.488339 187 177 168
0.071503 2.034655 -0.489528 187 177 168
0.082181 2.040998 -0.490328 185 175 166
0.092946 2.047403 -0.491124 185 175 165
0.103806 2.053909 -0.491923 185 175 166
0.114645 2.059737 -0.492591 184 174 165
0.125614 2.065913 -0.493302 183 173 163
0.136621 2.07182 -0.493953 182 172 162
0.146949 2.073194 -0.493817 181 171 161
0.157112 2.073385 -0.493466 173 163 153
0.166891 2.07126 -0.492708 158 147 135
0.176453 2.067915 -0.491731 155 143 129
0.185618 2.06248 -0.490386 157 144 130
0.194929 2.057948 -0.489183 155 143 129
0.204329 2.053956 -0.488059 153 142 128
0.213613 2.049446 -0.486835 154 143 129
0.22208 2.041046 -0.484944 153 142 129
0.231098 2.035517 -0.483526 152 142 129
0.239641 2.0279 -0.481746 152 142 129
0.248234 2.020725 -0.480032 152 142 129
0.256701 2.013168 -0.478243 152 142 129
0.264784 2.004151 -0.476202 152 142 129
0.273289 1.997178 -0.474495 151 141 129
0.281399 1.988725 -0.472533 151 141 128
0.290177 1.983219 -0.471055 151 141 128
0.299098 1.978391 -0.469681 150 140 128
0.3076 1.972 -0.468042 150 140 128
0.316224 1.966218 -0.466498 150 140 128
0.324689 1.959956 -0.46487 150 140 128
0.333527 1.95521 -0.463489 150 140 127
0.342063 1.949458 -0.46194 149 139 127
0.349737 1.940765 -0.459907 150 140 128
0.35834 1.935553 -0.458446 150 140 127
0.366567 1.929168 -0.456795 148 139 124
0.374158 1.920808 -0.454826 149 140 125
0.381465 1.911747 -0.45275 149 139 127
0.390063 1.907158 -0.451411 149 139 127
0.398496 1.902166 -0.450015 148 138 126
0.406502 1.895984 -0.448437 148 138 126
0.413713 1.887534 -0.446507 147 137 125
0.421688 1.881697 -0.445016 147 137 125
0.430036 1.877189 -0.443759 147 137 125
0.438325 1.872687 -0.442523 147 137 125
0.445833 1.866102 -0.440975 147 137 125
0.453271 1.859584 -0.439465 145 135 123
0.461097 1.854438 -0.438204 145 135 123
0.468493 1.848343 -0.436822 145 135 123
0.476505 1.844229 -0.435791 145 135 123
0.484488 1.840283 -0.434822 145 135 123
0.492309 1.836156 -0.433863 144 135 122
0.498725 1.828589 -0.432395 144 135 121
0.506632 1.825279 -0.431648 143 134 119
0.514074 1.821041 -0.430798 143 134 119
0.521233 1.816388 -0.429927 143 133 121
0.528259 1.811721 -0.429101 143 133 121
0.53421 1.804715 -0.427951 145 134 122
0.541418 1.801183 -0.427403 144 134 121
0.549584 1.800284 -0.427323 143 134 119
0.555987 1.795419 -0.426662 142 133 118
0.561519 1.78884 -0.425778 143 134 119
0.569839 1.789189 -0.426048 142 133 119
0.576661 1.786304 -0.425852 142 133 119
0.58127 1.778641 -0.424944 142 132 119
0.585071 1.769545 -0.423853 142 133 119
-0.877229 0.946248 -0.281339 152 144 133
-0.866224 0.937628 -0.279947 153 145 134
-0.865845 0.944522 -0.280889 154 146 135
-0.861603 0.945919 -0.281046 154 146 135
-0.858277 0.948796 -0.281455 153 147 135
-0.853972 0.950342 -0.281698 154 148 136
-0.850836 0.953771 -0.282252 154 147 137
-0.848732 0.95892 -0.283094 154 148 137
-0.846586 0.96418 -0.283985 154 148 136
-0.843449 0.968075 -0.284706 155 149 137
-0.839317 0.97056 -0.285249 155 149 137
-0.835247 0.973263 -0.285855 156 149 138
-0.832277 0.97784 -0.286771 156 149 139
-0.828472 0.981222 -0.287539 156 149 139
-0.824229 0.984017 -0.288248 156 150 139
-0.819747 0.986526 -0.28894 157 151 139
-0.817785 0.993308 -0.290301 157 151 139
-0.813718 0.996743 -0.291184 157 151 139
-0.809547 1.000103 -0.29208 156 149 139
-0.80593 1.004508 -0.293155 157 150 139
-0.802376 1.009133 -0.294285 157 151 139
-0.797909 1.012278 -0.295209 157 150 139
-0.793752 1.016042 -0.296244 159 151 140
-0.789922 1.020469 -0.297396 159 151 140
-0.78704 1.026696 -0.298839 159 151 140
-0.783992 1.032748 -0.300269 160 152 141
-0.778763 1.034896 -0.301109 161 153 142
-0.774396 1.038677 -0.302209 160 154 142
-0.771161 1.044646 -0.303658 161 155 143
-0.768034 1.050926 -0.305163 162 156 144
-0.763518 1.054633 -0.306273 164 156 145
-0.759355 1.059072 -0.307501 164 156 145
-0.754936 1.063062 -0.308662 165 157 146
-0.750822 1.067708 -0.309929 166 158 147
-0.746812 1.072619 -0.311238 167 159 148
-0.743086 1.078174 -0.312651 167 161 149
-0.739013 1.083083 -0.313962 168 162 150
-0.734135 1.086368 -0.315011 170 163 152
-0.729772 1.090759 -0.316234 171 163 152
-0.724933 1.094173 -0.317298 172 164 153
-0.721334 1.100299 -0.318795 172 164 153
-0.717235 1.10541 -0.320126 173 165 154
-0.712935 1.110134 -0.32139 173 165 154
-0.707872 1.113186 -0.322378 173 165 154
-0.702666 1.11592 -0.323308 176 168 157
-0.699932 1.124372 -0.325167 176 168 157
-0.69537 1.128688 -0.326345 177 169 158
-0.69033 1.13191 -0.327337 177 168 158
-0.68548 1.1356 -0.3284 177 169 158
-0.680651 1.139369 -0.329469 178 170 159
-0.675519 1.142418 -0.330412 178 170 159
-0.673551 1.153407 -0.332666 178 170 159
-0.668846 1.157671 -0.333799 179 171 160
-0.663862 1.161263 -0.334814 180 172 161
-0.659966 1.167726 -0.336302 181 173 162
-0.654753 1.170811 -0.337219 181 173 162
-0.651417 1.178957 -0.338977 182 174 163
-0.64625 1.182278 -0.33992 182 174 163
-0.641031 1.185478 -0.340836 182 174 163
-0.636038 1.189338 -0.341856 183 175 164
-0.631296 1.19396 -0.342998 185 175 165
-0.628416 1.204035 -0.345056 185 175 165
-0.622702 1.206031 -0.345742 185 175 165
-0.618952 1.213873 -0.347412 186 176 166
-0.613456 1.216609 -0.34821 187 178 167
-0.60903 1.222653 -0.349565 187 179 168
-0.604519 1.228561 -0.35089 187 179 168
-0.598981 1.231333 -0.351675 187 179 168
-0.593985 1.23588 -0.352757 188 180 169
-0.5897 1.242851 -0.354248 189 180 169
-0.585258 1.249464 -0.355674 189 181 170
-0.580584 1.255456 -0.356988 189 181 170
-0.576184 1.262543 -0.358485 188 180 169
-0.571175 1.267673 -0.359641 188 180 169
-0.565545 1.270703 -0.36043 189 181 170
-0.562118 1.281808 -0.362606 189 181 170
-0.556621 1.285583 -0.363514 190 182 171
-0.55106 1.289197 -0.364388 190 182 171
-0.545611 1.293323 -0.365345 190 182 171
-0.541333 1.302145 -0.367111 190 182 170
-0.536542 1.309202 -0.368567 190 182 170
-0.532367 1.319 -0.370496 190 182 170
-0.526486 1.32203 -0.371245 192 183 172
-0.520254 1.32363 -0.37174 193 183 173
-0.51472 1.328277 -0.372761 193 183 173
-0.510193 1.337541 -0.374581 193 183 173
-0.505077 1.344483 -0.375994 194 184 174
-0.499684 1.350394 -0.377222 194 184 174
-0.494296 1.356547 -0.378489 195 185 175
-0.488786 1.362335 -0.379689 196 186 176
-0.484191 1.372903 -0.381721 195 185 175
-0.478166 1.37664 -0.382554 197 187 177
-0.472188 1.380758 -0.38345 197 187 177
-0.466265 1.385323 -0.38442 197 187 178
-0.460979 1.39358 -0.386033 198 188 179
-0.456056 1.404282 -0.388073 199 189 179
-0.450305 1.410715 -0.389361 200 190 179
-0.444269 1.415751 -0.390399 199 189 179
-0.438305 1.421464 -0.391553 201 191 181
-0.43241 1.42791 -0.392832 202 192 182
-0.426372 1.433759 -0.394003 202 192 182
-0.420802 1.44309 -0.395783 202 192 183
-0.414619 1.448706 -0.396906 203 193 183
-0.408386 1.454287 -0.398019 204 194 184
-0.402146 1.460154 -0.399179 207 194 185
-0.396096 1.467858 -0.40066 206 195 186
-0.389813 1.474222 -0.401901 206 196 186
-0.383636 1.481909 -0.403373 209 196 187
-0.37737 1.489392 -0.404805 210 197 188
-0.371032 1.496808 -0.406222 211 198 189
-0.364614 1.504055 -0.407605 211 198 189
-0.358233 1.512291 -0.40916 211 198 189
-0.351885 1.521606 -0.410903 211 198 189
-0.345286 1.529068 -0.412315 211 198 189
-0.338694 1.537356 -0.413869 211 198 189
-0.331936 1.544502 -0.415217 211 198 189
-0.325319 1.554264 -0.417025 210 197 188
-0.318458 1.561865 -0.418447 209 196 187
-0.311548 1.5697 -0.419906 210 197 189
-0.304969 1.583879 -0.422487 210 197 189
-0.297792 1.590021 -0.423638 210 197 188
-0.290743 1.599538 -0.425384 209 196 188
-0.283945 1.615884 -0.428338 209 196 188
-0.276615 1.623617 -0.429759 209 196 188
-0.269273 1.632771 -0.431428 208 195 187
-0.262095 1.648941 -0.434338 208 195 187
-0.254598 1.659493 -0.436246 208 195 186
-0.247108 1.674 -0.438852 207 194 186
-0.239241 1.676988 -0.439407 204 191 182
-0.231344 1.679656 -0.4399 203 190 182
-0.223475 1.686733 -0.441171 206 193 186
-0.215549 1.694746 -0.442602 205 192 185
-0.207561 1.707323 -0.444839 204 191 185
-0.199454 1.720721 -0.447215 202 191 184
-0.191216 1.735224 -0.449782 200 190 182
-0.182885 1.746084 -0.451695 197 187 179
-0.174214 1.771595 -0.456204 190 179 170
-0.165436 1.790875 -0.459599 198 187 178
-0.156664 1.802811 -0.461683 204 191 182
-0.147362 1.828597 -0.466218 203 190 181
-0.13828 1.841082 -0.468384 202 189 180
-0.129286 1.848355 -0.469616 202 189 180
-0.120338 1.852974 -0.47037 202 189 180
-0.110978 1.865086 -0.472445 202 189 180
-0.101323 1.880524 -0.475101 201 188 179
-0.091903 1.889354 -0.476576 200 187 178
-0.082543 1.895859 -0.477629 200 187 178
-0.073386 1.898368 -0.477966 199 186 177
-0.065031 1.889354 -0.476251 195 182 173
-0.056918 1.878221 -0.474155 179 166 157
-0.045223 1.912156 -0.480028 125 115 106
-0.034242 1.934047 -0.483756 107 96 90
-0.022449 1.962507 -0.488632 144 135 129
-0.014222 1.950795 -0.486393 45 36 27
-0.003946 1.960496 -0.487929 147 138 129
0.008706 1.991835 -0.493273 132 123 113
0.019112 1.999918 -0.494497 183 173 163
0.029184 2.004306 -0.495056 190 180 170
0.039543 2.010644 -0.495947 188 178 169
0.050317 2.019733 -0.497309 187 177 168
0.061006 2.027372 -0.498403 187 177 168
0.071749 2.03475 -0.499436 187 177 168
0.082333 2.040356 -0.500144 185 175 166
0.093199 2.047433 -0.501096 184 174 165
0.103893 2.052763 -0.501727 184 174 165
0.114686 2.058283 -0.502377 183 173 164
0.125885 2.065915 -0.503382 183 173 163
0.13673 2.070782 -0.503887 180 170 160
0.14759 2.07532 -0.50432 180 170 160
0.157627 2.074684 -0.503833 172 162 152
0.16722 2.07144 -0.502879 158 145 135
0.17687 2.068542 -0.501971 156 143 130
0.185995 2.062844 -0.500564 155 143 129
0.195177 2.057599 -0.499224 155 143 129
0.204605 2.053727 -0.49811 152 143 128
0.213809 2.048792 -0.4968 152 142 128
0.223014 2.043963 -0.495496 152 142 128
0.231905 2.037733 -0.493938 151 141 128
0.240187 2.028832 -0.491909 151 141 128
0.248912 2.022205 -0.490262 151 141 128
0.258434 2.01926 -0.48924 151 141 128
0.266791 2.011269 -0.487339 151 141 128
0.274568 2.001024 -0.485042 151 141 128
0.282376 1.99121 -0.482813 150 140 128
0.291154 1.985619 -0.4813 150 140 127
0.300097 1.980791 -0.47991 150 140 127
0.308338 1.973295 -0.478058 149 140 127
0.316131 1.964262 -0.475938 149 139 127
0.324847 1.958939 -0.474447 149 139 127
0.333784 1.954529 -0.473105 149 139 127
0.34186 1.947071 -0.471244 148 138 126
0.349986 1.939981 -0.469444 149 139 127
0.35855 1.93459 -0.467931 149 139 126
0.3665 1.927213 -0.466085 149 140 125
0.374189 1.919155 -0.464128 148 139 124
0.382249 1.912548 -0.46242 148 138 126
0.389986 1.905066 -0.460573 148 138 126
0.398792 1.901227 -0.459344 147 137 125
0.407001 1.895616 -0.457829 147 137 125
0.413983 1.886379 -0.455722 147 137 125
0.422604 1.882435 -0.454512 147 137 124
0.431287 1.878822 -0.453374 146 136 124
0.438809 1.871926 -0.45171 146 136 124
0.445954 1.864189 -0.449929 146 136 124
0.453543 1.858018 -0.448434 145 136 121
0.461206 1.852318 -0.447043 145 136 122
0.469864 1.849647 -0.446182 145 135 123
0.477668 1.844818 -0.444996 145 135 123
0.485203 1.839519 -0.443768 145 135 123
0.49346 1.836432 -0.44294 144 134 122
0.500974 1.831624 -0.441868 144 135 121
0.507325 1.824083 -0.44039 143 134 119
0.514458 1.818926 -0.439345 143 134 120
0.52107 1.812769 -0.438182 143 133 120
0.527536 1.8066 -0.437062 142 133 120
0.536202 1.806242 -0.436942 143 134 121
0.542534 1.800405 -0.435972 142 133 119
0.548905 1.795024 -0.435127 143 134 119
0.554932 1.78918 -0.434254 142 133 118
0.562394 1.787102 -0.434048 143 133 119
0.570346 1.786465 -0.434129 142 133 118
0.57533 1.779216 -0.433174 141 132 117
0.581246 1.774501 -0.432684 142 132 120
0.588131 1.772339 -0.432661 142 132 119
