ply
format ascii 1.0
comment ---
element vertex 1194
property float x
property float y
property float z
property uchar red
property uchar green
property uchar blue
element face 0
property list uchar uint vertex_indices
end_header
-0.617341 1.264086 -0.412692 178 170 157
-0.611417 1.266285 -0.412908 179 171 158
-0.607309 1.276116 -0.414977 179 171 157
-0.603198 1.286288 -0.417124 179 172 156
-0.59773 1.290913 -0.417919 179 172 156
-0.592488 1.296682 -0.418988 179 172 156
-0.586885 1.300997 -0.419701 180 173 157
-0.581236 1.305225 -0.42039 180 173 157
-0.577084 1.316757 -0.422841 180 173 157
-0.570628 1.317468 -0.422673 180 173 157
-0.565623 1.325446 -0.424256 180 173 157
-0.560287 1.332046 -0.425502 181 173 160
-0.554887 1.338573 -0.426727 181 173 160
-0.549116 1.343361 -0.427528 182 174 161
-0.542948 1.346119 -0.427839 182 174 161
-0.538057 1.356281 -0.429922 182 175 159
-0.533654 1.369836 -0.432812 183 175 160
-0.527546 1.373742 -0.433385 185 176 161
-0.521615 1.378914 -0.434256 184 177 161
-0.515738 1.384681 -0.435265 184 177 161
-0.509936 1.39124 -0.436459 185 177 164
-0.504573 1.401175 -0.438452 186 178 165
-0.498752 1.408445 -0.439803 186 178 165
-0.492398 1.412208 -0.440314 186 178 165
-0.48602 1.41598 -0.440824 187 179 166
-0.480229 1.424619 -0.442484 187 179 166
-0.474064 1.430767 -0.443547 187 179 166
-0.467649 1.435173 -0.444192 187 179 166
-0.46143 1.441631 -0.445318 188 179 167
-0.456039 1.456347 -0.448386 188 180 167
-0.449695 1.462986 -0.44954 189 180 167
-0.443551 1.472253 -0.451305 189 181 168
-0.436861 1.476459 -0.451872 190 181 169
-0.430099 1.480204 -0.452326 190 181 169
-0.422918 1.47922 -0.451664 191 182 169
-0.416185 1.483764 -0.452295 191 182 170
-0.410027 1.496678 -0.454879 191 182 170
-0.403734 1.50931 -0.457387 192 183 170
-0.397059 1.517718 -0.458896 193 184 171
-0.390248 1.525093 -0.460156 194 184 172
-0.383257 1.530345 -0.460913 194 184 172
-0.3762 1.535177 -0.461565 195 185 173
-0.369374 1.54611 -0.463627 194 184 172
-0.362497 1.558283 -0.465966 194 184 172
-0.355218 1.562232 -0.466386 193 183 171
-0.348041 1.570706 -0.467847 193 183 171
-0.341007 1.587723 -0.47127 193 183 171
-0.333564 1.592984 -0.471965 192 182 170
-0.326119 1.601194 -0.473331 191 183 170
-0.318618 1.611252 -0.47511 191 183 170
-0.310994 1.61756 -0.476016 191 183 170
-0.303312 1.625774 -0.477349 190 182 169
-0.295536 1.639661 -0.47997 189 181 168
-0.287704 1.642483 -0.480044 189 181 168
-0.279837 1.645578 -0.480172 188 180 167
-0.27171 1.662208 -0.483376 188 180 167
-0.26322 1.688095 -0.488669 187 179 167
-0.255118 1.689533 -0.48838 187 178 166
-0.246513 1.706507 -0.491608 186 178 166
-0.238029 1.715347 -0.492973 185 177 165
-0.229189 1.730662 -0.495788 185 177 165
-0.220478 1.739648 -0.497155 185 176 164
-0.211718 1.747657 -0.498286 184 176 164
-0.202178 1.768306 -0.502247 184 176 164
-0.193156 1.7767 -0.503431 183 175 163
-0.184346 1.780315 -0.503529 183 175 164
-0.175461 1.784316 -0.503701 182 174 163
-0.165405 1.803411 -0.507233 183 175 164
-0.154837 1.826453 -0.51162 181 173 162
-0.144627 1.842355 -0.51439 182 174 161
-0.134273 1.857937 -0.517067 181 173 160
-0.125049 1.859585 -0.516633 180 172 159
-0.115586 1.863311 -0.516648 179 171 158
-0.107482 1.853298 -0.513616 178 170 157
-0.097689 1.859667 -0.514196 176 168 156
-0.084211 1.897983 -0.521788 175 167 155
-0.072062 1.921653 -0.526123 173 166 154
-0.060751 1.936422 -0.528479 173 165 153
-0.049512 1.949339 -0.530409 172 164 153
-0.037043 1.97044 -0.534105 171 164 152
-0.026777 1.97386 -0.533926 171 163 152
-0.015994 1.980557 -0.534451 170 162 151
-0.004352 1.99253 -0.536108 169 162 150
0.006403 1.997813 -0.536302 169 161 150
0.019503 2.017602 -0.539619 168 161 149
0.031787 2.031103 -0.541561 167 159 148
0.042842 2.036417 -0.541732 166 159 147
0.054387 2.044258 -0.54244 164 158 146
0.065991 2.05201 -0.543124 162 156 144
0.077626 2.059547 -0.54376 161 155 143
0.089963 2.070498 -0.545122 159 153 141
0.10136 2.076087 -0.545343 158 152 140
0.11104 2.072805 -0.543689 158 151 138
0.120565 2.069063 -0.541953 141 132 115
0.13059 2.068102 -0.540824 135 127 108
0.140221 2.065536 -0.539375 133 125 106
0.14809 2.055197 -0.536314 133 125 106
0.156924 2.049947 -0.534353 134 126 107
0.166113 2.046787 -0.53286 132 124 105
0.174913 2.042408 -0.531141 131 123 104
0.183408 2.037267 -0.529298 130 122 103
0.191018 2.029034 -0.526846 129 121 102
0.196853 2.014274 -0.523077 128 121 102
0.20166 1.996369 -0.518702 128 121 102
0.212979 2.005176 -0.519913 129 122 103
0.223489 2.011011 -0.520543 129 122 103
0.236982 2.028479 -0.523617 128 122 103
-0.943072 0.617705 -0.272248 49 26 3
-0.939567 0.619313 -0.272481 47 25 2
-0.937282 0.622209 -0.273074 48 26 3
-0.933432 0.623627 -0.27328 51 28 5
-0.931603 0.627156 -0.274065 51 29 5
-0.928414 0.629393 -0.274514 52 29 5
-0.923725 0.630156 -0.274575 52 27 4
-0.921265 0.633274 -0.275281 52 28 4
-0.917547 0.635151 -0.275662 53 29 5
-0.914376 0.637655 -0.276221 53 29 5
-0.911297 0.640315 -0.27683 54 30 5
-0.909333 0.644229 -0.277782 56 31 5
-0.907593 0.648459 -0.278826 56 30 5
-0.902978 0.649608 -0.27905 56 30 5
-0.899964 0.652542 -0.279759 58 32 7
-0.896588 0.655111 -0.280374 57 32 6
-0.89162 0.655912 -0.280519 55 30 5
-0.887074 0.657182 -0.280795 54 29 4
-0.883775 0.659884 -0.281456 56 30 5
-0.880854 0.663043 -0.282242 55 29 4
-0.87749 0.665707 -0.282898 54 29 5
-0.873432 0.667561 -0.283338 51 27 3
-0.869613 0.669693 -0.283853 53 29 5
-0.866157 0.672261 -0.284484 50 26 3
-0.86199 0.673962 -0.284884 51 26 4
-0.857945 0.675797 -0.285319 48 26 5
-0.864996 0.691427 -0.289435 43 28 10
-1.000559 0.87768 -0.338993 21 24 17
-0.999414 0.885128 -0.340903 18 21 14
-0.996669 0.89058 -0.342276 9 11 5
-0.990085 0.891046 -0.342318 2 3 0
-0.981605 0.888939 -0.341671 9 10 3
-0.973552 0.887282 -0.341143 91 86 74
-0.969274 0.890607 -0.341937 128 121 106
-0.964805 0.893664 -0.342656 127 120 102
-0.959791 0.895957 -0.343167 128 121 103
-0.957832 0.902465 -0.344796 131 122 105
-0.953965 0.906353 -0.345723 132 123 106
-0.949888 0.909947 -0.346568 132 124 107
-0.94527 0.912764 -0.347202 134 126 108
-0.941576 0.916902 -0.348183 135 127 110
-0.93923 0.923022 -0.349684 136 128 111
-0.935505 0.927157 -0.350655 137 130 112
-0.930456 0.929329 -0.3511 138 131 113
-0.925878 0.932182 -0.351721 138 131 115
-0.921425 0.935214 -0.352385 140 133 117
-0.919275 0.941784 -0.353981 140 134 118
-0.915395 0.94573 -0.354878 141 134 118
-0.910965 0.948825 -0.355545 142 135 119
-0.907434 0.953343 -0.356583 142 135 117
-0.903539 0.957303 -0.35747 142 135 117
-0.900249 0.962263 -0.358615 142 136 118
-0.895773 0.965317 -0.359254 142 136 118
-0.891643 0.968943 -0.360038 143 136 120
-0.889066 0.975182 -0.361506 143 136 120
-0.884699 0.97846 -0.36219 141 134 116
-0.880327 0.981739 -0.36287 142 136 118
-0.876131 0.985328 -0.363627 142 137 118
-0.872332 0.989627 -0.364567 143 137 120
-0.869211 0.995161 -0.365826 143 137 121
-0.865046 0.998887 -0.366606 142 136 120
-0.861532 1.003814 -0.367696 143 138 120
-0.85735 1.007567 -0.368475 143 138 119
-0.854642 1.014073 -0.369969 143 137 121
-0.85007 1.017182 -0.370571 144 139 121
-0.845164 1.019669 -0.371007 144 139 120
-0.841444 1.024425 -0.372031 145 140 121
-0.837373 1.028556 -0.372889 147 142 123
-0.832871 1.03188 -0.373532 147 141 125
-0.82878 1.036041 -0.374389 148 142 126
-0.825384 1.041637 -0.375615 149 143 127
-0.821579 1.04648 -0.376642 150 144 129
-0.81646 1.048687 -0.37698 151 145 131
-0.811693 1.051625 -0.377505 152 146 130
-0.80766 1.056121 -0.378431 153 147 131
-0.803559 1.060531 -0.37933 153 147 133
-0.802131 1.070755 -0.38173 154 148 134
-0.795612 1.070075 -0.381305 155 149 135
-0.792996 1.077945 -0.383087 156 150 136
-0.788359 1.08144 -0.383735 157 151 137
-0.783621 1.084743 -0.384331 158 152 138
-0.778565 1.08735 -0.384744 159 153 139
-0.774258 1.091712 -0.385606 159 153 139
-0.771498 1.099783 -0.387418 160 154 140
-0.76669 1.103126 -0.388012 161 155 141
-0.762524 1.10806 -0.38901 161 155 141
-0.757864 1.111863 -0.389715 162 156 142
-0.754 1.117699 -0.390938 163 157 143
-0.749096 1.12102 -0.391514 164 157 144
-0.744084 1.124106 -0.392027 166 158 145
-0.739823 1.129176 -0.393044 165 159 145
-0.733817 1.129748 -0.39291 165 159 145
-0.732384 1.142486 -0.395876 166 160 146
-0.727022 1.144907 -0.396207 167 161 147
-0.722448 1.149509 -0.397092 167 161 147
-0.71777 1.153909 -0.397922 169 161 148
-0.712711 1.157308 -0.398496 170 162 149
-0.708419 1.162965 -0.399639 171 163 150
-0.703583 1.167154 -0.400407 171 163 150
-0.698798 1.171572 -0.401231 172 165 149
-0.694508 1.177568 -0.402451 172 165 149
-0.689736 1.182225 -0.403328 172 165 149
-0.685258 1.187897 -0.404459 173 165 151
-0.680514 1.19286 -0.405408 174 166 152
-0.676691 1.200894 -0.407127 174 167 151
-0.672369 1.207517 -0.408487 175 168 152
-0.667071 1.211059 -0.409069 176 169 153
-0.661811 1.214798 -0.409697 176 169 153
-0.657655 1.222419 -0.411297 176 169 153
-0.652733 1.227566 -0.412273 176 169 153
-0.647489 1.231693 -0.41299 177 170 154
-0.642858 1.238147 -0.414287 177 170 154
-0.638557 1.246008 -0.415931 177 170 154
-0.6334 1.250875 -0.416824 178 171 155
-0.627957 1.254765 -0.41747 177 170 155
-0.623226 1.26155 -0.418834 179 171 158
-0.617804 1.265774 -0.419558 178 170 157
-0.612302 1.269779 -0.420224 178 170 157
-0.608733 1.28198 -0.422922 178 171 156
-0.603505 1.287546 -0.423968 178 171 156
-0.597495 1.289868 -0.424207 179 172 156
-0.591736 1.293347 -0.42473 180 173 157
-0.587175 1.302391 -0.426627 179 172 156
-0.581653 1.307295 -0.427496 180 173 157
-0.576066 1.312046 -0.428323 180 173 157
-0.571488 1.321912 -0.430408 180 173 157
-0.565189 1.323538 -0.430458 179 172 158
-0.560772 1.334882 -0.432897 181 173 160
-0.555197 1.340609 -0.433948 181 173 160
-0.549218 1.344371 -0.434514 182 174 160
-0.543217 1.348142 -0.435078 182 174 160
-0.539515 1.365249 -0.438905 182 175 159
-0.533649 1.370478 -0.439816 183 176 160
-0.527394 1.373571 -0.440201 183 176 160
-0.521368 1.378206 -0.44096 184 177 161
-0.51558 1.38459 -0.442141 185 177 162
-0.509945 1.392319 -0.443644 185 177 164
-0.504531 1.402015 -0.445621 187 179 166
-0.498354 1.406841 -0.446407 186 178 165
-0.491882 1.409749 -0.446723 186 178 165
-0.485645 1.41458 -0.447502 187 178 166
-0.479979 1.424239 -0.449445 187 179 166
-0.473686 1.429384 -0.450289 187 179 166
-0.467688 1.437412 -0.451824 187 179 166
-0.461592 1.44516 -0.453286 188 179 166
-0.455786 1.456242 -0.455543 188 180 167
-0.449474 1.463284 -0.45682 188 180 167
-0.442698 1.466138 -0.457083 189 180 168
-0.435985 1.469881 -0.457555 190 181 168
-0.429165 1.472708 -0.457802 190 181 169
-0.422577 1.478564 -0.45877 191 181 169
-0.416337 1.489535 -0.460956 191 182 169
-0.410198 1.503231 -0.463783 191 182 170
-0.403226 1.506514 -0.464113 192 183 170
-0.396823 1.519167 -0.466671 193 183 171
-0.389929 1.525396 -0.467689 194 184 172
-0.38293 1.530694 -0.468477 194 184 172
-0.37599 1.538106 -0.46976 194 184 172
-0.369374 1.554307 -0.473119 195 185 173
-0.362112 1.55802 -0.473505 194 184 172
-0.354908 1.564343 -0.474502 193 183 171
-0.348006 1.582502 -0.478286 193 183 171
-0.340623 1.588553 -0.479197 193 183 171
-0.33321 1.595858 -0.480395 191 183 170
-0.325738 1.603782 -0.481728 191 183 170
-0.318176 1.610464 -0.482759 191 183 170
-0.310557 1.618193 -0.484026 190 182 169
-0.30286 1.624993 -0.485064 189 181 168
-0.2951 1.630254 -0.485731 189 181 168
-0.287234 1.642544 -0.48803 188 180 168
-0.279358 1.645794 -0.488207 188 180 167
-0.270953 1.677973 -0.495109 187 179 167
-0.262626 1.692304 -0.497832 187 179 166
-0.254474 1.694589 -0.497743 186 178 166
-0.246022 1.705534 -0.499652 186 178 165
-0.237398 1.71811 -0.501923 185 177 165
-0.228789 1.727134 -0.503356 185 176 164
-0.219468 1.749675 -0.507891 184 176 164
-0.210419 1.762312 -0.510122 184 176 164
-0.201268 1.774376 -0.512203 183 175 163
-0.192552 1.777002 -0.512101 183 175 163
-0.183753 1.780317 -0.512146 181 173 161
-0.173704 1.800944 -0.516138 182 174 163
-0.16393 1.814984 -0.518601 182 174 163
-0.153 1.841711 -0.523934 181 173 162
-0.143932 1.842968 -0.523445 181 173 161
-0.13417 1.851699 -0.524643 181 173 161
-0.123389 1.87021 -0.528039 180 172 160
-0.113589 1.876742 -0.528702 179 171 158
-0.1071 1.850434 -0.521941 177 169 157
-0.093381 1.893093 -0.530726 175 168 156
-0.08238 1.907867 -0.533197 174 166 154
-0.069645 1.935934 -0.538629 173 165 153
-0.058984 1.944727 -0.539713 172 164 152
-0.047353 1.960267 -0.542289 171 163 152
-0.036415 1.969294 -0.543391 171 163 151
-0.026497 1.970133 -0.542656 170 162 151
-0.015815 1.976148 -0.543064 169 161 150
-0.003438 1.993123 -0.54589 169 161 150
0.007875 2.001934 -0.54689 168 161 150
0.019665 2.01314 -0.548407 167 161 149
0.032183 2.028079 -0.550733 166 160 148
0.043761 2.036483 -0.551609 165 159 147
0.055728 2.046642 -0.552862 163 157 145
0.067364 2.054373 -0.553576 161 155 143
0.079495 2.064427 -0.554794 159 153 141
0.091167 2.071559 -0.555372 159 153 141
0.101843 2.073233 -0.554765 158 152 140
0.111893 2.071768 -0.553486 157 150 136
0.121696 2.069304 -0.552004 137 129 111
0.13023 2.061008 -0.549281 135 127 108
0.140899 2.063359 -0.548875 134 126 107
0.148959 2.053825 -0.545931 132 125 106
0.157805 2.048514 -0.543922 131 124 105
0.167009 2.045308 -0.542394 131 123 104
0.175891 2.041164 -0.540694 130 122 103
0.184337 2.035696 -0.538744 129 121 102
0.193405 2.0334 -0.537504 128 120 102
0.199619 2.019977 -0.533933 128 120 101
0.203337 1.997503 -0.528484 127 120 101
0.214509 2.005526 -0.529554 128 120 101
0.224744 2.010113 -0.529929 128 121 102
0.237374 2.024109 -0.532332 127 120 101
-0.937608 0.611307 -0.274653 51 26 4
-0.938009 0.616739 -0.275953 50 25 3
-0.936572 0.620482 -0.276794 50 26 4
-0.934936 0.624133 -0.277619 53 28 5
-0.931181 0.625744 -0.277891 52 28 5
-0.927304 0.627294 -0.278156 52 28 5
-0.925122 0.630645 -0.278928 51 27 3
-0.922175 0.633287 -0.279514 54 30 6
-0.919251 0.63602 -0.280133 53 29 5
-0.915681 0.638136 -0.280591 53 29 5
-0.912395 0.640602 -0.281152 54 30 6
-0.909644 0.643693 -0.281893 58 33 7
-0.90718 0.647153 -0.282741 57 31 6
-0.903873 0.649745 -0.283356 58 32 7
-0.900656 0.652475 -0.284014 56 30 5
-0.897059 0.654816 -0.28457 57 31 6
-0.891131 0.654552 -0.284416 56 30 5
-0.887434 0.656796 -0.284953 55 29 4
-0.884333 0.659736 -0.285683 53 29 4
-0.881015 0.662448 -0.286353 55 29 5
-0.877483 0.664925 -0.286959 53 29 5
-0.873659 0.667063 -0.287474 51 27 3
-0.869209 0.668451 -0.287785 52 28 4
-0.865822 0.671102 -0.288441 51 26 4
-0.862371 0.673678 -0.289076 50 25 3
-0.858863 0.676184 -0.289691 49 27 6
-0.863331 0.688603 -0.293012 44 28 12
-1.001656 0.878131 -0.344578 22 24 17
-0.999714 0.884573 -0.34624 20 21 15
-0.994545 0.886893 -0.346774 9 11 6
-0.987639 0.886914 -0.34668 2 4 0
-0.98378 0.890883 -0.347657 9 10 3
-0.977116 0.891116 -0.347615 40 36 26
-0.969535 0.89004 -0.347213 127 120 104
-0.964802 0.892743 -0.347836 128 120 103
-0.960151 0.895536 -0.348481 129 121 103
-0.956068 0.899099 -0.34933 131 123 105
-0.954344 0.905967 -0.351074 132 123 106
-0.950554 0.909973 -0.352035 132 125 108
-0.946647 0.913819 -0.352948 135 126 109
-0.943058 0.918128 -0.353983 136 127 110
-0.939502 0.9225 -0.35503 136 127 110
-0.935311 0.925951 -0.355822 137 129 111
-0.930787 0.928904 -0.356476 138 131 114
-0.925346 0.930464 -0.356748 139 132 116
-0.922146 0.935396 -0.357928 139 132 116
-0.919325 0.940941 -0.35927 140 133 117
-0.915684 0.945259 -0.360274 141 134 118
-0.9117 0.94906 -0.361135 141 135 118
-0.907487 0.952508 -0.361895 141 135 117
-0.903324 0.95604 -0.362675 141 135 116
-0.899391 0.959953 -0.363552 142 135 119
-0.896562 0.965689 -0.364916 142 136 120
-0.892113 0.968803 -0.365569 142 136 119
-0.888748 0.973731 -0.366706 142 135 118
-0.88514 0.978289 -0.367738 141 134 116
-0.880729 0.98151 -0.368407 141 134 116
-0.87645 0.984966 -0.369136 143 136 118
-0.872461 0.98894 -0.369999 142 136 119
-0.869121 0.994088 -0.371172 142 136 120
-0.865413 0.998632 -0.372179 143 137 121
-0.860196 1.000489 -0.372463 143 136 119
-0.858944 1.009571 -0.374674 143 136 118
-0.854649 1.013178 -0.375418 143 136 119
-0.850317 1.016738 -0.376145 143 137 118
-0.845526 1.019452 -0.376643 143 138 119
-0.841469 1.023575 -0.377512 145 140 121
-0.837041 1.027017 -0.378197 146 141 122
-0.832363 1.029996 -0.378754 148 142 125
-0.828735 1.035064 -0.379864 148 142 126
-0.825264 1.040512 -0.38107 150 144 128
-0.820952 1.044329 -0.38184 151 145 129
-0.816464 1.047821 -0.382519 152 146 130
-0.811979 1.05135 -0.383205 152 146 130
-0.807635 1.055206 -0.383975 153 147 131
-0.802845 1.058154 -0.384501 154 148 132
-0.799606 1.064461 -0.385911 154 149 134
-0.797903 1.074223 -0.388227 155 149 135
-0.793187 1.077523 -0.388835 156 150 136
-0.788765 1.081513 -0.389621 157 151 137
-0.783866 1.08447 -0.390133 158 152 138
-0.778819 1.087113 -0.390559 158 152 138
-0.774732 1.092002 -0.391573 159 153 139
-0.77116 1.098183 -0.392921 160 154 140
-0.767239 1.103641 -0.394076 161 155 141
-0.762685 1.107664 -0.394852 161 155 141
-0.758546 1.112759 -0.395905 162 156 142
-0.753928 1.116753 -0.396667 163 156 143
-0.749123 1.120333 -0.397318 165 157 144
-0.744412 1.124202 -0.398042 166 158 145
-0.740832 1.131059 -0.399541 166 159 145
-0.736258 1.135446 -0.400393 166 159 146
-0.731504 1.139428 -0.401137 167 161 147
-0.727681 1.145994 -0.402549 166 160 146
-0.722972 1.150269 -0.403363 169 161 148
-0.71825 1.154581 -0.404184 170 162 149
-0.713401 1.158611 -0.404929 171 163 150
-0.710495 1.168296 -0.407134 171 163 150
-0.705196 1.171242 -0.407592 171 164 148
-0.699857 1.17411 -0.408027 171 163 150
-0.694448 1.176803 -0.408416 172 164 149
-0.689683 1.181499 -0.409319 172 165 149
-0.684812 1.185963 -0.410159 173 165 152
-0.681424 1.195213 -0.412227 174 166 153
-0.675892 1.197819 -0.412583 174 166 152
-0.67204 1.205955 -0.414357 175 167 152
-0.666809 1.209726 -0.415007 176 168 153
-0.661786 1.214275 -0.415854 176 169 153
-0.658557 1.225115 -0.418308 176 168 153
-0.652953 1.227953 -0.41871 176 169 153
-0.647553 1.231563 -0.419307 177 170 154
-0.643149 1.238877 -0.420847 177 170 154
-0.638355 1.244958 -0.422069 178 171 155
-0.633499 1.250979 -0.423272 178 171 155
-0.62834 1.256007 -0.424219 178 171 155
-0.623954 1.264211 -0.425969 178 171 155
-0.618171 1.267078 -0.42636 178 171 155
-0.612373 1.269936 -0.426747 178 171 155
-0.608648 1.281529 -0.429345 179 172 155
-0.603272 1.286493 -0.430258 178 171 155
-0.597728 1.290872 -0.431021 179 172 156
-0.592425 1.296453 -0.432084 179 172 156
-0.587907 1.305816 -0.434097 180 173 157
-0.582276 1.310334 -0.434884 180 173 157
-0.576521 1.3144 -0.435554 180 173 157
-0.570694 1.318242 -0.436165 180 173 157
-0.566412 1.329971 -0.438754 180 173 157
-0.560681 1.334748 -0.439592 181 173 160
-0.554947 1.339688 -0.440467 182 174 161
-0.549618 1.347016 -0.441936 182 175 161
-0.543419 1.349806 -0.442266 183 176 159
-0.539179 1.363931 -0.445425 182 175 159
-0.533129 1.368091 -0.446088 184 177 161
-0.527036 1.372155 -0.446724 184 176 161
-0.520912 1.376195 -0.44735 185 178 162
-0.515588 1.385581 -0.449302 184 177 163
-0.509827 1.392576 -0.450654 185 177 164
-0.504163 1.400621 -0.452261 185 177 164
-0.498012 1.405658 -0.453117 186 178 165
-0.491761 1.410223 -0.453851 188 180 167
-0.486277 1.420925 -0.456099 187 178 166
-0.479894 1.425196 -0.45675 187 179 166
-0.473692 1.431218 -0.457828 187 179 166
-0.467589 1.438506 -0.459214 187 179 166
-0.461587 1.447232 -0.460947 187 179 166
-0.455624 1.457025 -0.462935 188 179 167
-0.449501 1.466073 -0.464732 188 180 167
-0.442413 1.465931 -0.464267 189 180 167
-0.435772 1.470541 -0.464964 190 181 168
-0.428852 1.472349 -0.464969 190 181 168
-0.422504 1.481231 -0.4667 190 181 169
-0.417163 1.504094 -0.471836 191 182 169
-0.410103 1.506224 -0.471899 191 182 170
-0.403217 1.511118 -0.472631 191 182 170
-0.396501 1.519332 -0.474165 193 183 171
-0.389618 1.525932 -0.475297 194 184 172
-0.382542 1.530012 -0.475811 194 184 172
-0.375899 1.543628 -0.478628 195 185 173
-0.368915 1.552349 -0.480249 194 184 172
-0.361713 1.557574 -0.481015 193 183 171
-0.354438 1.562045 -0.481591 193 183 171
-0.347389 1.57538 -0.484296 193 183 171
-0.340171 1.586974 -0.486569 193 183 171
-0.332783 1.595573 -0.48811 192 182 170
-0.325322 1.604674 -0.48976 191 183 170
-0.317739 1.610722 -0.490668 190 182 169
-0.310101 1.617197 -0.491668 190 182 169
-0.302407 1.628155 -0.493729 190 182 169
-0.294611 1.637455 -0.495382 189 180 168
-0.286732 1.645619 -0.496751 188 180 167
-0.278823 1.649676 -0.497132 188 179 167
-0.270513 1.674391 -0.502411 187 179 166
-0.262274 1.684945 -0.504307 186 178 166
-0.253859 1.698061 -0.506795 186 177 165
-0.245559 1.703339 -0.507413 185 177 165
-0.237052 1.712669 -0.508977 185 177 165
-0.22818 1.728488 -0.512056 184 176 164
-0.218583 1.756609 -0.518012 184 176 164
-0.209748 1.76414 -0.519099 184 175 163
-0.201183 1.765257 -0.518668 183 175 163
-0.191884 1.778174 -0.520992 183 175 163
-0.182884 1.784362 -0.521724 181 173 161
-0.172678 1.80676 -0.526227 182 174 163
-0.162572 1.824706 -0.529665 182 174 163
-0.152382 1.841321 -0.532771 183 175 164
-0.143224 1.843573 -0.53252 182 174 162
-0.134041 1.845657 -0.532218 180 172 159
-0.123741 1.859209 -0.53456 180 172 159
-0.113675 1.868862 -0.535981 178 170 157
-0.102558 1.887547 -0.539466 176 168 156
-0.091469 1.904104 -0.542437 175 167 155
-0.081027 1.913352 -0.543707 173 166 154
-0.069179 1.933528 -0.547465 172 164 153
-0.058099 1.945702 -0.549367 171 163 152
-0.047694 1.951525 -0.549801 170 163 151
-0.037007 1.95888 -0.550571 170 162 150
-0.025456 1.971824 -0.552598 169 161 150
-0.013818 1.984352 -0.554512 168 160 149
-0.00284 1.991473 -0.555186 166 159 148
0.009358 2.006005 -0.557523 166 160 148
0.021561 2.019568 -0.559624 164 158 146
0.032601 2.025106 -0.559904 163 157 145
0.044781 2.03706 -0.561619 162 156 144
0.057089 2.049043 -0.563328 161 155 143
0.068975 2.057977 -0.564346 159 153 141
0.080728 2.065732 -0.565097 158 152 140
0.092345 2.072395 -0.565602 158 152 140
0.102649 2.071996 -0.564539 156 150 138
0.112799 2.070944 -0.563341 155 148 133
0.122657 2.06864 -0.561879 136 128 109
0.132494 2.066512 -0.560471 134 126 106
0.141591 2.061206 -0.558381 133 125 106
0.150639 2.056136 -0.556366 131 124 105
0.158818 2.047648 -0.553626 130 122 103
0.16779 2.043293 -0.551821 131 123 104
0.176852 2.039824 -0.550239 128 121 102
0.185423 2.034767 -0.54834 128 120 101
0.194861 2.033866 -0.547381 127 120 101
0.202042 2.024239 -0.544557 127 119 100
0.218327 2.014816 -0.541165 126 119 100
0.226386 2.010704 -0.539658 127 119 100
0.247388 2.056145 -0.548908 126 119 100
-0.946762 0.619192 -0.28105 51 26 4
-0.937891 0.615588 -0.279813 50 25 3
-0.938207 0.621084 -0.281169 51 26 4
-0.934962 0.623155 -0.281563 52 27 5
-0.930898 0.624473 -0.281755 53 28 6
-0.927796 0.626829 -0.28225 52 27 5
-0.925062 0.629632 -0.28288 52 27 4
-0.922763 0.63296 -0.283667 53 29 5
-0.919321 0.635174 -0.284147 53 29 5
-0.916224 0.637805 -0.284753 52 28 4
-0.913844 0.641256 -0.285596 54 30 5
-0.910687 0.643938 -0.28623 56 31 6
-0.905735 0.644723 -0.286336 56 31 5
-0.903785 0.648798 -0.287372 58 32 7
-0.900643 0.651621 -0.288062 57 31 6
-0.896491 0.653355 -0.288449 57 31 6
-0.892605 0.655396 -0.288926 56 30 5
-0.888728 0.657461 -0.289413 55 30 4
-0.885573 0.660362 -0.290137 53 29 4
-0.881254 0.661936 -0.29049 54 29 6
-0.877532 0.6642 -0.291039 53 29 5
-0.873944 0.666625 -0.291633 52 28 4
-0.870813 0.669597 -0.292381 53 29 5
-0.866593 0.671268 -0.292764 52 27 5
-0.863104 0.673811 -0.293391 50 25 5
-0.860524 0.677472 -0.29433 48 26 5
-0.862021 0.686215 -0.296686 43 26 10
-1.000449 0.875648 -0.349363 21 24 17
-0.997562 0.880865 -0.350704 20 21 15
-0.992309 0.883052 -0.351198 12 13 7
-0.985801 0.88357 -0.351223 3 4 0
-0.981556 0.887006 -0.35206 6 7 2
-0.978516 0.892042 -0.353337 43 38 29
-0.96956 0.889142 -0.352404 127 119 105
-0.964862 0.891892 -0.353039 126 118 102
-0.960546 0.895149 -0.353811 127 118 101
-0.956529 0.89881 -0.354692 131 122 105
-0.953912 0.904429 -0.356113 131 123 106
-0.950256 0.908619 -0.357132 131 124 107
-0.946691 0.91295 -0.358186 134 125 109
-0.943363 0.917636 -0.359334 134 125 109
-0.939348 0.921342 -0.360206 136 127 110
-0.934968 0.924512 -0.360925 137 129 112
-0.929887 0.926632 -0.361349 137 130 113
-0.925693 0.930057 -0.362131 138 131 115
-0.922495 0.934996 -0.363326 138 131 115
-0.919775 0.940702 -0.364729 139 132 116
-0.916362 0.94538 -0.365842 140 133 117
-0.912366 0.949173 -0.366707 141 134 118
-0.907986 0.952367 -0.367403 141 134 117
-0.903366 0.955177 -0.367989 142 135 117
-0.900748 0.96122 -0.36946 142 135 118
-0.897456 0.966223 -0.370641 142 135 118
-0.893556 0.970259 -0.371551 142 137 118
-0.889298 0.97372 -0.372298 142 136 118
-0.885988 0.978792 -0.373484 141 135 117
-0.881663 0.982177 -0.374202 142 136 117
-0.877496 0.985846 -0.374995 141 135 116
-0.873068 0.989075 -0.375663 141 136 118
-0.869025 0.992995 -0.376516 141 135 119
-0.865245 0.997409 -0.377499 142 137 119
-0.861854 1.002563 -0.378681 142 137 118
-0.857089 1.005264 -0.37919 142 137 118
-0.854637 1.012238 -0.380859 143 137 119
-0.850103 1.015424 -0.381491 143 137 118
-0.845823 1.019102 -0.382254 143 137 118
-0.841062 1.02189 -0.382772 145 139 121
-0.83658 1.025224 -0.383434 147 141 123
-0.831868 1.028128 -0.383976 148 143 124
-0.82858 1.033863 -0.385283 149 144 125
-0.825131 1.039352 -0.386519 151 145 129
-0.820981 1.043499 -0.387387 153 147 131
-0.816833 1.047694 -0.388264 152 146 130
-0.812649 1.051863 -0.389131 153 147 131
-0.809036 1.057276 -0.39033 153 147 131
-0.804992 1.061853 -0.3913 153 147 131
-0.801203 1.067037 -0.392429 154 148 133
-0.79651 1.070329 -0.393045 155 149 135
-0.792582 1.075338 -0.39412 156 150 136
-0.788562 1.080217 -0.395157 156 150 136
-0.783966 1.083861 -0.395858 157 151 137
-0.779736 1.088389 -0.396793 159 153 139
-0.775896 1.093889 -0.397986 159 153 139
-0.771679 1.098592 -0.398961 159 153 139
-0.767283 1.102942 -0.399839 161 155 141
-0.762533 1.106503 -0.400502 161 155 141
-0.758551 1.111989 -0.401677 162 156 141
-0.754231 1.116732 -0.402649 163 156 143
-0.749054 1.1194 -0.403066 164 157 143
-0.745031 1.125033 -0.40427 165 158 144
-0.74064 1.129823 -0.405246 165 158 145
-0.736927 1.136478 -0.406714 166 159 146
-0.731864 1.139675 -0.40726 167 160 147
-0.726963 1.143353 -0.407932 167 161 147
-0.723268 1.150394 -0.409491 168 162 148
-0.718644 1.155007 -0.410404 168 162 148
-0.714231 1.160305 -0.411495 169 162 148
-0.710145 1.166648 -0.412859 169 163 149
-0.705076 1.170268 -0.413501 171 164 150
-0.699628 1.172824 -0.41386 172 164 151
-0.694879 1.177513 -0.414779 172 165 150
-0.690135 1.182313 -0.415724 172 165 151
-0.684675 1.184989 -0.416108 173 165 152
-0.682157 1.196998 -0.418939 174 166 153
-0.677307 1.201863 -0.419891 174 166 153
-0.671901 1.205015 -0.420392 175 167 154
-0.666525 1.20832 -0.42093 176 168 155
-0.661957 1.214419 -0.422197 176 168 155
-0.658512 1.224545 -0.424511 175 168 154
-0.652671 1.226573 -0.424708 176 168 155
-0.6487 1.235302 -0.426649 177 169 154
-0.643574 1.240089 -0.427559 178 171 155
-0.638689 1.245894 -0.428731 178 171 155
-0.634127 1.253085 -0.430259 178 170 155
-0.628322 1.255694 -0.430595 179 172 156
-0.623845 1.263577 -0.432295 178 171 155
-0.618761 1.269278 -0.433426 178 171 155
-0.613701 1.275247 -0.434623 178 171 155
-0.60849 1.280771 -0.435701 178 171 155
-0.602897 1.284832 -0.436399 178 171 155
-0.597298 1.288979 -0.437115 179 172 156
-0.592713 1.297773 -0.439026 179 172 156
-0.58821 1.307281 -0.441116 180 173 157
-0.582521 1.311606 -0.441867 179 172 156
-0.576982 1.31679 -0.442836 180 173 157
-0.571159 1.320754 -0.443489 180 173 157
-0.566093 1.328657 -0.445148 180 173 157
-0.560179 1.332508 -0.445765 180 173 157
-0.555033 1.340554 -0.447451 182 175 159
-0.549629 1.347551 -0.448865 181 174 159
-0.543766 1.35229 -0.449697 182 175 159
-0.53894 1.363176 -0.452093 183 176 161
-0.531191 1.357327 -0.450222 183 176 160
-0.526812 1.371574 -0.453462 184 177 161
-0.521375 1.379968 -0.455207 185 177 163
-0.515866 1.388342 -0.456941 184 176 163
-0.510057 1.395171 -0.458277 185 177 164
-0.503959 1.400376 -0.459197 185 177 164
-0.49791 1.406203 -0.46027 185 177 164
-0.492177 1.414701 -0.462013 186 178 165
-0.486302 1.422645 -0.463609 186 178 165
-0.479913 1.427009 -0.464297 187 178 165
-0.473406 1.430654 -0.4648 187 179 166
-0.467141 1.436602 -0.465878 187 179 166
-0.461329 1.447064 -0.468084 187 179 166
-0.455399 1.457252 -0.470212 188 179 167
-0.448986 1.463551 -0.471358 188 179 167
-0.442841 1.473153 -0.473325 189 180 167
-0.43624 1.478675 -0.474264 189 180 168
-0.429469 1.482759 -0.474838 190 181 168
-0.423687 1.49926 -0.478503 190 181 169
-0.417311 1.51002 -0.480725 190 181 169
-0.409947 1.508479 -0.479879 191 182 169
-0.402781 1.509522 -0.479672 191 182 170
-0.396172 1.519483 -0.481673 193 183 171
-0.38917 1.524224 -0.482372 194 184 172
-0.382486 1.535634 -0.484715 194 184 172
-0.375564 1.544313 -0.486371 194 184 172
-0.368491 1.55132 -0.487606 194 184 172
-0.361273 1.556246 -0.488319 193 184 172
-0.354043 1.562085 -0.48925 192 184 171
-0.346895 1.572495 -0.491296 192 184 171
-0.33977 1.587662 -0.494499 191 183 170
-0.332308 1.593278 -0.495346 191 182 170
-0.324869 1.603767 -0.497377 191 183 170
-0.317285 1.610142 -0.49839 190 182 169
-0.309724 1.630337 -0.502768 190 182 169
-0.301948 1.63462 -0.503247 189 181 168
-0.294115 1.642846 -0.504678 189 180 168
-0.28623 1.647477 -0.505223 188 180 167
-0.278304 1.651467 -0.505602 187 179 167
-0.270192 1.663605 -0.507949 187 178 166
-0.261782 1.683621 -0.512188 186 178 166
-0.253228 1.70169 -0.515935 185 177 165
-0.24462 1.715798 -0.518706 185 177 165
-0.235634 1.736328 -0.523007 185 176 164
-0.226729 1.749921 -0.525616 184 176 164
-0.217894 1.758963 -0.527115 184 175 163
-0.209541 1.756622 -0.525869 183 175 163
-0.200167 1.772755 -0.52904 183 175 163
-0.191161 1.780056 -0.53008 182 174 162
-0.182393 1.782403 -0.529924 181 173 161
-0.171307 1.817263 -0.537504 181 173 162
-0.162249 1.820369 -0.537495 181 173 162
-0.15298 1.825537 -0.537965 181 173 162
-0.143372 1.833909 -0.539181 181 173 160
-0.133127 1.848276 -0.541801 180 172 159
-0.123004 1.859678 -0.543699 178 170 157
-0.112812 1.870459 -0.545433 177 169 157
-0.101434 1.89142 -0.549544 176 168 156
-0.090367 1.907467 -0.552475 174 166 154
-0.080202 1.914024 -0.553158 173 165 153
-0.069609 1.923465 -0.554503 171 163 152
-0.057622 1.943248 -0.558245 170 163 151
-0.047359 1.94796 -0.558451 170 162 150
-0.036927 1.953437 -0.558822 169 161 149
-0.024316 1.9741 -0.562708 167 160 148
-0.013244 1.982484 -0.563723 166 159 148
-0.001048 1.997758 -0.566318 166 158 147
0.010687 2.00894 -0.56795 165 158 146
0.022863 2.022109 -0.570025 162 156 144
0.034326 2.030047 -0.570883 163 157 145
0.045805 2.037563 -0.571635 160 154 142
0.05822 2.050009 -0.573508 159 153 141
0.070089 2.058693 -0.574511 157 151 139
0.081366 2.063699 -0.574671 157 151 139
0.093401 2.072505 -0.575695 157 151 138
0.104087 2.073955 -0.575047 156 150 136
0.113617 2.069609 -0.573094 152 145 129
0.123701 2.068327 -0.571848 135 127 108
0.133162 2.064276 -0.569991 133 125 106
0.142684 2.060889 -0.568303 131 123 105
0.151569 2.054952 -0.566062 129 122 103
0.160145 2.048147 -0.563651 128 121 102
0.168595 2.041357 -0.561271 131 123 104
0.177698 2.037963 -0.559679 128 120 101
0.186558 2.034018 -0.557994 127 119 101
0.195736 2.031909 -0.55675 126 118 100
0.204233 2.027514 -0.55503 126 118 100
0.213571 2.027042 -0.554218 125 117 99
0.223568 2.029591 -0.554109 125 118 99
0.23278 2.029502 -0.553452 126 118 99
-0.94739 0.618742 -0.285147 50 25 3
-0.94345 0.620014 -0.285295 48 25 3
-0.939406 0.62125 -0.285443 49 25 3
-0.93632 0.623507 -0.285897 51 26 4
-0.932436 0.625037 -0.28615 52 27 5
-0.928377 0.62645 -0.286379 52 27 5
-0.926348 0.629997 -0.287232 53 29 5
-0.922607 0.63186 -0.287608 53 29 5
-0.91939 0.634322 -0.288164 54 30 6
-0.916638 0.637332 -0.288885 56 32 8
-0.913803 0.640316 -0.289605 54 30 4
-0.909174 0.641433 -0.289793 55 31 5
-0.906285 0.64445 -0.290534 56 31 5
-0.903381 0.6475 -0.291289 57 31 6
-0.899839 0.649888 -0.291858 57 31 6
-0.896542 0.652576 -0.292518 58 32 7
-0.893004 0.655021 -0.29311 57 31 6
-0.890292 0.658422 -0.293979 53 29 4
-0.886619 0.660755 -0.294544 55 31 6
-0.881417 0.661326 -0.294605 53 29 5
-0.877679 0.66358 -0.295151 53 29 5
-0.8739 0.665786 -0.295683 51 27 3
-0.870093 0.667958 -0.296206 53 29 5
-0.866962 0.670937 -0.296959 51 27 4
-0.863532 0.673562 -0.297611 50 25 3
-0.860464 0.676631 -0.298388 47 25 5
-0.861382 0.684651 -0.300578 45 26 9
-0.998672 0.872434 -0.353923 21 22 16
-0.995895 0.877769 -0.355311 19 20 14
-0.992034 0.881737 -0.356308 13 14 8
-0.98601 0.882887 -0.356498 4 5 0
-0.98168 0.886216 -0.357307 6 6 2
-0.975932 0.887648 -0.357572 28 25 16
-0.970049 0.888852 -0.35777 127 119 106
-0.96493 0.891041 -0.358245 128 120 104
-0.960867 0.894645 -0.359118 128 119 102
-0.957828 0.899666 -0.360389 130 121 104
-0.953472 0.90287 -0.361141 130 123 106
-0.949503 0.90661 -0.362041 131 123 107
-0.946064 0.911109 -0.363152 134 125 108
-0.942691 0.915721 -0.36429 135 126 110
-0.939278 0.920296 -0.365414 135 127 109
-0.934965 0.923564 -0.366163 135 127 110
-0.930039 0.925915 -0.366649 137 130 113
-0.926118 0.929753 -0.367552 138 131 114
-0.92388 0.936157 -0.369174 138 131 114
-0.920352 0.940643 -0.37025 139 132 115
-0.91677 0.945068 -0.371304 141 134 117
-0.91279 0.948892 -0.372185 141 134 117
-0.908379 0.952046 -0.372873 141 135 117
-0.904159 0.955504 -0.373642 141 135 116
-0.901002 0.960687 -0.374892 141 135 116
-0.897841 0.965908 -0.376148 141 135 117
-0.894026 0.970094 -0.377109 142 137 118
-0.89004 0.974018 -0.377992 141 136 117
-0.886065 0.977981 -0.378882 141 136 117
-0.882384 0.982469 -0.379915 141 135 116
-0.878165 0.986063 -0.380693 142 135 117
-0.873686 0.989218 -0.381345 141 136 117
-0.869022 0.992056 -0.381905 142 137 118
-0.866419 0.998572 -0.383487 143 138 119
-0.862087 1.002052 -0.384218 143 137 118
-0.857998 1.005995 -0.385074 143 137 119
-0.853624 1.009442 -0.385789 143 138 119
-0.850041 1.014385 -0.386915 144 139 120
-0.845442 1.017463 -0.38752 145 140 121
-0.841146 1.021135 -0.388286 148 143 124
-0.836699 1.024541 -0.388975 150 145 126
-0.833404 1.030223 -0.390291 152 147 128
-0.829496 1.034769 -0.391288 156 150 132
-0.825221 1.038632 -0.392092 157 151 135
-0.821387 1.043424 -0.39315 157 151 135
-0.817543 1.048257 -0.394214 157 151 135
-0.814348 1.054497 -0.395663 157 151 136
-0.809359 1.057071 -0.396098 154 148 134
-0.805711 1.062503 -0.397317 154 148 133
-0.801127 1.066004 -0.398 154 148 134
-0.796495 1.069434 -0.398661 155 149 135
-0.791982 1.073158 -0.3994 155 149 135
-0.787822 1.077714 -0.400364 157 151 137
-0.783949 1.082982 -0.40152 157 151 137
-0.780444 1.089177 -0.402925 158 152 138
-0.776243 1.093868 -0.403915 159 153 139
-0.771897 1.098287 -0.404827 160 154 140
-0.767151 1.101821 -0.405495 160 154 140
-0.762607 1.105884 -0.406304 160 154 140
-0.759122 1.112596 -0.407832 161 155 141
-0.75411 1.115654 -0.408361 162 156 142
-0.749234 1.119087 -0.40899 163 157 143
-0.74491 1.12397 -0.41001 165 157 144
-0.741609 1.131586 -0.411768 166 159 145
-0.736896 1.135664 -0.412562 165 159 145
-0.73193 1.139132 -0.41319 165 159 145
-0.727377 1.143767 -0.414129 167 161 147
-0.723296 1.14978 -0.415439 167 161 147
-0.719314 1.156198 -0.416853 168 162 148
-0.714604 1.160697 -0.417747 169 163 149
-0.70942 1.163921 -0.418294 169 163 149
-0.704676 1.168474 -0.419197 170 164 150
-0.700159 1.173788 -0.420302 170 164 150
-0.695871 1.179908 -0.421619 173 165 152
-0.690892 1.184057 -0.422405 172 164 151
-0.685682 1.18757 -0.423017 173 165 152
-0.682429 1.197325 -0.425298 174 166 152
-0.677395 1.201634 -0.426117 174 166 152
-0.672096 1.205164 -0.426726 175 167 154
-0.666813 1.208811 -0.427363 176 168 155
-0.663311 1.21856 -0.429625 176 168 155
-0.657335 1.220073 -0.429688 176 168 155
-0.652704 1.226301 -0.431004 176 168 155
-0.648131 1.232906 -0.432417 177 169 156
-0.643422 1.239203 -0.433744 178 170 156
-0.639651 1.249162 -0.436038 177 170 154
-0.634061 1.252562 -0.43659 178 171 155
-0.628512 1.256191 -0.4372 178 171 155
-0.623404 1.261638 -0.438288 178 171 155
-0.619292 1.271242 -0.44047 178 171 155
-0.613599 1.274698 -0.441026 178 171 155
-0.60813 1.279173 -0.441847 178 171 155
-0.602604 1.283527 -0.442634 177 170 154
-0.596924 1.287334 -0.443274 178 171 155
-0.592735 1.297908 -0.445689 179 172 156
-0.587359 1.303472 -0.446783 180 173 157
-0.582527 1.311768 -0.44859 179 172 156
-0.577286 1.318431 -0.449964 179 172 156
-0.571444 1.322394 -0.450628 180 173 157
-0.565195 1.324428 -0.450785 181 174 158
-0.560437 1.334192 -0.452957 181 174 158
-0.555775 1.344906 -0.455371 182 175 159
-0.549113 1.34523 -0.455073 182 175 159
-0.544274 1.355683 -0.457408 183 176 160
-0.538461 1.361051 -0.458416 183 176 161
-0.532756 1.367289 -0.459645 184 176 162
-0.527294 1.3753 -0.46133 184 176 162
-0.522029 1.384957 -0.463434 184 176 163
-0.516102 1.39085 -0.464559 185 177 164
-0.51006 1.396269 -0.465557 185 177 164
-0.503914 1.401246 -0.466436 185 177 164
-0.497899 1.407418 -0.46762 187 179 166
-0.491942 1.414379 -0.469001 187 179 166
-0.485952 1.421505 -0.470419 186 178 165
-0.479702 1.427017 -0.471417 186 178 165
-0.473183 1.430646 -0.471927 187 178 166
-0.46672 1.434961 -0.472609 187 179 166
-0.460897 1.445348 -0.47484 187 179 166
-0.454798 1.453964 -0.476611 187 179 166
-0.44843 1.460649 -0.477881 188 179 167
-0.442257 1.469927 -0.479807 188 180 167
-0.435822 1.477209 -0.481216 189 180 167
-0.429184 1.482855 -0.482202 189 180 168
-0.422696 1.490879 -0.483786 190 181 168
-0.416695 1.506124 -0.487197 190 181 169
-0.409446 1.506029 -0.486704 191 181 169
-0.402389 1.508655 -0.486899 191 182 170
-0.395822 1.519374 -0.489135 193 183 171
-0.388843 1.524666 -0.489991 193 184 171
-0.38193 1.532024 -0.491361 194 184 172
-0.375157 1.543637 -0.493795 194 184 172
-0.368146 1.55222 -0.495456 194 184 172
-0.360961 1.558332 -0.496486 193 183 171
-0.353624 1.561611 -0.496797 192 183 171
-0.3466 1.576479 -0.500007 191 183 170
-0.339378 1.588984 -0.502612 191 183 170
-0.331922 1.595721 -0.503761 193 183 171
-0.324446 1.60523 -0.505593 191 181 169
-0.316864 1.613332 -0.507064 190 182 169
-0.309242 1.627942 -0.510144 189 181 168
-0.301473 1.636721 -0.511759 189 181 168
-0.293637 1.640319 -0.512076 188 180 167
-0.285766 1.643494 -0.51228 188 179 167
-0.277787 1.652358 -0.513885 187 179 166
-0.269748 1.659566 -0.515067 186 178 166
-0.260894 1.69943 -0.524303 186 177 165
-0.252511 1.708013 -0.52579 185 177 165
-0.243949 1.719395 -0.527954 185 176 165
-0.235094 1.73553 -0.53127 184 176 164
-0.226099 1.751099 -0.534429 184 176 164
-0.217651 1.751462 -0.533842 184 175 163
-0.208711 1.761108 -0.535519 183 175 163
-0.199538 1.773071 -0.537747 183 174 162
-0.190527 1.780235 -0.538787 182 174 162
-0.181385 1.788148 -0.539997 181 173 160
-0.170981 1.812658 -0.545226 181 173 160
-0.161703 1.818864 -0.545987 181 173 160
-0.152348 1.825067 -0.546732 180 172 159
-0.141987 1.842194 -0.550107 180 172 159
-0.131829 1.854996 -0.552414 179 171 158
-0.121365 1.869522 -0.555118 178 170 157
-0.11109 1.880526 -0.556954 177 169 156
-0.101683 1.881998 -0.556483 175 167 155
-0.089924 1.904643 -0.561078 173 166 154
-0.079566 1.912905 -0.562203 172 164 152
-0.068702 1.924554 -0.564122 171 163 151
-0.057246 1.939871 -0.566897 170 162 150
-0.046594 1.947628 -0.567852 169 161 149
-0.036383 1.951368 -0.56784 167 160 148
-0.024977 1.96329 -0.569756 166 159 147
-0.012168 1.984001 -0.573733 165 158 146
-0.000204 1.997539 -0.575992 164 156 145
0.011755 2.010054 -0.577994 162 156 144
0.024028 2.023673 -0.580239 161 155 143
0.035688 2.032648 -0.581378 159 153 141
0.047202 2.040174 -0.582168 158 152 140
0.059446 2.05143 -0.583822 157 151 139
0.07082 2.057182 -0.584183 156 150 136
0.082669 2.065212 -0.58507 155 149 136
0.094427 2.072374 -0.585752 155 149 137
0.104963 2.072935 -0.584904 156 150 136
0.114759 2.069841 -0.583217 148 142 125
0.123792 2.063278 -0.580742 133 125 106
0.133801 2.061849 -0.579468 132 124 104
0.143366 2.058597 -0.57779 131 123 104
0.152839 2.055276 -0.576115 128 121 102
0.161845 2.050262 -0.574074 129 121 102
0.170475 2.044086 -0.571793 128 120 101
0.179211 2.038931 -0.569773 127 119 101
0.188313 2.035843 -0.568254 126 118 100
0.197295 2.032749 -0.566763 126 117 100
0.205482 2.026948 -0.56469 125 117 99
0.214118 2.02355 -0.563198 124 116 98
0.222202 2.018559 -0.561381 124 116 98
0.230328 2.014355 -0.559781 125 117 99
0.240273 2.017604 -0.559902 124 117 99
-0.947636 0.617921 -0.289146 48 26 3
-0.944091 0.6196 -0.289417 48 26 3
-0.940314 0.621124 -0.289651 47 26 2
-0.936841 0.623019 -0.290004 49 25 3
-0.933992 0.625611 -0.290573 50 25 3
-0.930279 0.627407 -0.290914 51 26 4
-0.926253 0.628942 -0.291186 53 29 5
-0.923863 0.632215 -0.29198 54 30 6
-0.919632 0.633648 -0.292237 55 31 7
-0.91639 0.636158 -0.292819 55 30 7
-0.913475 0.639068 -0.293525 53 29 4
-0.910638 0.642115 -0.294276 56 30 5
-0.907306 0.64468 -0.294891 57 31 6
-0.902792 0.645994 -0.295142 58 32 7
-0.899375 0.648524 -0.295755 56 30 5
-0.896442 0.651622 -0.296538 57 31 6
-0.893646 0.654908 -0.297378 56 31 7
-0.890378 0.657693 -0.298075 53 29 5
-0.885695 0.658878 -0.298303 54 30 6
-0.88216 0.661377 -0.298919 53 29 5
-0.878229 0.663421 -0.299402 51 27 3
-0.873959 0.665061 -0.299768 52 28 4
-0.870064 0.667133 -0.30026 54 30 6
-0.866687 0.669821 -0.300932 51 27 3
-0.863663 0.67294 -0.301729 50 25 3
-0.86185 0.677553 -0.302962 48 25 4
-0.859835 0.681953 -0.30413 46 26 7
-0.998103 0.870738 -0.358899 23 24 16
-0.995842 0.876725 -0.360492 20 21 13
-0.99367 0.882872 -0.362129 13 14 7
-0.988088 0.884624 -0.362483 4 5 0
-0.983017 0.887008 -0.363018 5 5 1
-0.975496 0.886106 -0.362596 31 29 20
-0.968933 0.886394 -0.362517 127 120 107
-0.964884 0.890021 -0.363405 128 120 104
-0.961045 0.893933 -0.364372 128 120 102
-0.958807 0.900064 -0.365978 130 122 105
-0.953851 0.902443 -0.366493 130 123 105
-0.949725 0.905968 -0.367336 130 123 105
-0.946265 0.910439 -0.368449 132 125 107
-0.942465 0.914438 -0.369421 133 126 108
-0.938851 0.918715 -0.370469 134 126 109
-0.935903 0.923987 -0.3718 136 127 110
-0.932275 0.928284 -0.372845 136 129 111
-0.928421 0.932257 -0.373793 137 130 112
-0.924407 0.936 -0.37467 138 131 113
-0.92124 0.941047 -0.375918 139 132 113
-0.917288 0.944914 -0.376822 140 133 117
-0.913328 0.948778 -0.377722 141 135 118
-0.908944 0.951985 -0.378428 141 135 117
-0.904562 0.955194 -0.379131 141 135 117
-0.901473 0.960494 -0.38043 141 135 117
-0.897882 0.96502 -0.381502 142 136 117
-0.894 0.969096 -0.382442 141 136 117
-0.890045 0.973073 -0.383349 141 136 117
-0.885838 0.976647 -0.384137 141 136 117
-0.882312 0.981395 -0.385255 141 136 117
-0.87857 0.985812 -0.386276 142 135 117
-0.874233 0.989225 -0.387006 142 136 119
-0.870389 0.993523 -0.387984 142 137 118
-0.86703 0.998716 -0.389213 143 137 119
-0.863039 1.002828 -0.39013 146 139 121
-0.858491 1.005956 -0.390764 147 142 123
-0.854021 1.00924 -0.391439 149 143 127
-0.849338 1.012142 -0.392002 151 145 129
-0.84543 1.016514 -0.392979 152 147 129
-0.842157 1.022138 -0.394306 154 149 131
-0.8382 1.026517 -0.395276 155 150 132
-0.833982 1.030432 -0.396112 155 150 132
-0.83075 1.03633 -0.397503 155 149 133
-0.82631 1.039899 -0.398234 154 148 133
-0.821313 1.04237 -0.398652 152 146 131
-0.818158 1.048617 -0.40013 150 144 129
-0.814105 1.053098 -0.401107 153 147 133
-0.810242 1.058034 -0.402208 156 150 136
-0.805934 1.062093 -0.403059 154 148 134
-0.801656 1.066264 -0.403939 153 147 133
-0.79684 1.069313 -0.404501 154 148 134
-0.792253 1.072893 -0.405209 156 150 136
-0.788861 1.079177 -0.40667 156 150 136
-0.784761 1.08397 -0.40771 157 151 137
-0.780234 1.087856 -0.408493 157 151 137
-0.776165 1.092853 -0.409584 158 152 138
-0.772039 1.097798 -0.410656 160 154 140
-0.767401 1.1016 -0.411407 161 155 141
-0.763264 1.106665 -0.412506 161 155 140
-0.75894 1.111356 -0.413498 161 156 140
-0.753995 1.114584 -0.414081 162 156 142
-0.749225 1.118291 -0.414794 163 157 143
-0.74573 1.1253 -0.416419 164 157 143
-0.74168 1.13102 -0.417682 165 158 145
-0.736863 1.13484 -0.418417 165 159 145
-0.732157 1.139015 -0.419248 166 160 146
-0.727812 1.144232 -0.420363 166 160 146
-0.723423 1.149433 -0.421471 166 160 146
-0.719845 1.156992 -0.423223 168 162 148
-0.714978 1.161087 -0.42402 169 163 149
-0.709714 1.164116 -0.424521 170 163 149
-0.704018 1.165927 -0.424686 170 164 150
-0.70109 1.17593 -0.427094 170 164 150
-0.696023 1.179768 -0.427809 172 165 151
-0.691125 1.184191 -0.428682 172 164 151
-0.687011 1.191141 -0.430242 172 164 151
-0.682208 1.196091 -0.431252 174 166 152
-0.677663 1.201979 -0.432515 174 166 152
-0.672652 1.206489 -0.433399 175 167 154
-0.668417 1.213677 -0.435009 176 168 155
-0.662591 1.215678 -0.435206 176 169 154
-0.657215 1.219242 -0.435826 176 168 153
-0.652136 1.22392 -0.436745 175 168 153
-0.647259 1.229429 -0.437886 177 169 155
-0.643549 1.239332 -0.440214 177 170 156
-0.63923 1.247294 -0.44201 178 171 156
-0.633911 1.25172 -0.442848 178 171 155
-0.628367 1.255393 -0.44348 178 171 155
-0.622983 1.259777 -0.444301 177 170 154
-0.619025 1.269999 -0.44669 178 171 155
-0.613357 1.273572 -0.447286 178 171 155
-0.607886 1.278059 -0.448125 177 170 154
-0.60286 1.284573 -0.449506 178 171 155
-0.598384 1.293711 -0.451585 178 171 155
-0.592086 1.295044 -0.45157 178 171 155
-0.587369 1.303603 -0.453486 179 172 156
-0.582467 1.311622 -0.455252 179 172 156
-0.576638 1.315513 -0.455912 180 173 157
-0.571662 1.323707 -0.457715 181 174 158
-0.564864 1.323062 -0.457161 181 174 158
-0.56124 1.338704 -0.460938 181 174 158
-0.555465 1.343686 -0.461873 182 175 159
-0.549805 1.349489 -0.463023 182 175 159
-0.54458 1.357965 -0.464878 183 175 160
-0.538554 1.362232 -0.465612 183 175 162
-0.53226 1.365072 -0.465965 184 176 163
-0.52767 1.378398 -0.469087 184 176 163
-0.521259 1.381013 -0.469373 185 177 164
-0.515891 1.390473 -0.471461 184 176 163
-0.509487 1.393526 -0.471855 185 177 164
-0.503928 1.402547 -0.473817 185 177 164
-0.497844 1.40834 -0.474923 186 178 165
-0.491791 1.414695 -0.476172 187 179 166
-0.485606 1.420417 -0.47725 186 178 165
-0.479443 1.426663 -0.478461 186 178 165
-0.473101 1.43183 -0.479384 186 178 165
-0.466741 1.437181 -0.48035 187 178 166
-0.461025 1.448722 -0.482927 187 179 166
-0.454359 1.45223 -0.483401 187 179 166
-0.448205 1.461052 -0.485254 187 179 166
-0.441462 1.464533 -0.485712 188 179 167
-0.434919 1.470457 -0.486799 188 180 167
-0.42824 1.475369 -0.487618 189 180 168
-0.421653 1.481876 -0.488844 190 180 168
-0.415292 1.492042 -0.491012 190 181 168
-0.408768 1.501177 -0.492903 190 181 169
-0.401946 1.507092 -0.493955 191 182 169
-0.395553 1.520655 -0.496973 192 183 171
-0.388617 1.526947 -0.498106 193 183 171
-0.38153 1.53144 -0.498768 193 184 172
-0.374649 1.540961 -0.500717 193 184 172
-0.367697 1.550849 -0.50275 193 184 172
-0.360554 1.558159 -0.504112 193 183 171
-0.353533 1.570986 -0.506878 193 183 171
-0.346282 1.580014 -0.50866 192 183 170
-0.338919 1.587942 -0.510152 192 182 170
-0.33153 1.598244 -0.512238 192 182 170
-0.324038 1.608236 -0.514235 191 181 169
-0.316446 1.617744 -0.516097 190 182 169
-0.308775 1.629479 -0.518513 190 182 169
-0.300986 1.635704 -0.519519 189 181 168
-0.293149 1.63845 -0.519634 188 180 167
-0.285299 1.639352 -0.519276 188 179 166
-0.277243 1.654545 -0.52252 187 178 166
-0.269239 1.658697 -0.522963 186 178 165
-0.260839 1.678089 -0.527235 185 177 165
-0.251989 1.706847 -0.533841 185 177 165
-0.243503 1.715688 -0.53542 185 176 164
-0.234821 1.727294 -0.537679 184 176 164
-0.22608 1.737452 -0.539559 184 175 164
-0.217527 1.741278 -0.539843 183 175 163
-0.207689 1.769056 -0.546093 183 174 163
-0.19879 1.775255 -0.546939 182 174 162
-0.189687 1.783602 -0.548306 181 173 161
-0.180445 1.792612 -0.549824 181 173 160
-0.17032 1.812648 -0.554061 181 173 161
-0.161005 1.819205 -0.554937 180 173 161
-0.150539 1.839049 -0.559083 179 173 160
-0.140717 1.848901 -0.56074 180 172 160
-0.131238 1.853675 -0.56113 179 171 159
-0.12079 1.867947 -0.563842 178 170 157
-0.110511 1.878935 -0.565729 176 168 156
-0.099957 1.891326 -0.567941 175 167 155
-0.089458 1.901918 -0.569695 173 165 154
-0.079455 1.907094 -0.570109 172 164 153
-0.066935 1.932691 -0.575486 170 162 151
-0.056203 1.941744 -0.57681 169 161 150
-0.046091 1.945152 -0.576747 166 159 148
-0.034488 1.959234 -0.579261 165 159 147
-0.023353 1.968821 -0.580667 164 158 146
